# 3D point list with one line of data per point:
#   POINT3D_ID, X, Y, Z, R, G, B, ERROR, TRACK[] as (IMAGE_ID, POINT2D_IDX)
# Number of points: 202, mean track length: 
7889 0.038497 0.437893 2.720769 110 172 195 0 5 2021 8 1962 53 1306 68 1169 109 861 111 838 131 700 
7890 -0.380239 0.326173 2.731728 108 176 206 0 8 1963 54 1255 58 1270 
7892 -0.238551 0.435019 2.644027 34 88 122 0 8 1964 56 1209 68 1170 
7893 -0.034589 0.322875 2.777266 95 146 179 0 1 1647 2 1690 3 1883 4 2068 5 2022 6 1977 7 2048 8 1965 9 1778 10 1767 11 1640 12 1663 13 1722 15 1540 16 1403 17 1336 18 1487 19 1636 20 1713 21 1758 22 1778 24 1764 25 1811 26 1727 27 1722 28 1692 29 1705 30 1668 31 1628 32 1571 33 1502 37 1415 38 1396 39 1392 40 1430 41 1413 42 1448 43 1404 44 1359 45 1336 46 1189 47 1071 48 1045 49 890 52 1257 54 1256 55 1259 56 1210 57 1227 59 1286 60 1271 61 1279 62 1231 63 1224 64 1209 65 1192 66 1178 67 1181 68 1171 71 1171 72 1121 74 1033 75 993 76 941 77 889 78 921 79 956 80 959 81 978 82 996 83 930 84 911 85 960 86 996 87 1003 88 990 92 912 93 904 95 897 96 869 97 886 98 837 99 819 100 849 101 914 102 892 103 898 104 845 105 833 106 857 108 841 110 826 112 847 113 784 114 807 115 835 116 834 117 857 118 803 119 777 120 758 121 724 123 793 124 777 125 773 126 751 128 748 129 703 130 731 131 701 132 706 134 683 135 680 136 676 138 655 139 668 140 660 141 668 142 655 143 604 144 632 147 606 149 578 150 571 151 578 152 547 153 544 154 561 155 548 156 525 157 538 158 518 160 501 161 497 162 494 163 479 165 401 
7894 -0.664302 0.272004 2.713234 87 155 189 0 8 1966 58 1271 64 1210 65 1193 
7896 0.124749 0.422736 2.773442 31 88 124 0 8 1967 58 1272 64 1211 65 1194 92 913 
7899 -0.491353 0.399802 2.592063 91 152 180 0 8 1968 62 1232 64 1212 
7904 0.195163 0.087280 3.101779 45 113 147 0 8 1969 69 1176 70 1158 72 1122 98 838 102 893 133 720 142 656 145 652 153 545 
7906 0.030352 0.357953 2.769081 97 152 187 0 8 1970 58 1273 71 1172 72 1123 73 1115 101 915 104 846 120 759 130 732 160 502 163 480 
7907 -0.059095 0.219690 2.909310 146 200 230 0 8 1971 72 1124 81 979 82 997 92 914 95 898 98 839 100 850 106 858 113 785 114 808 115 836 116 835 118 804 123 794 126 752 129 704 130 733 132 707 133 721 134 684 137 643 139 669 140 661 141 669 143 605 144 633 145 653 147 607 149 579 150 572 153 546 154 562 156 526 157 539 158 519 161 498 162 495 164 438 
7920 0.098780 0.220389 2.968973 55 117 149 0 8 1972 154 563 172 349 
7927 -0.683088 0.416417 2.221680 31 64 105 0 9 1779 10 1768 11 1641 12 1664 13 1723 15 1541 17 1337 18 1488 19 1637 
7929 -0.768486 0.410756 2.461391 86 146 179 0 9 1780 10 1769 17 1338 18 1489 19 1638 32 1572 33 1503 
7930 -0.971809 0.097876 2.850698 82 146 181 0 9 1781 10 1770 16 1404 21 1759 25 1812 29 1706 
7931 -1.184862 -0.472230 3.301639 28 84 125 0 9 1782 10 1771 11 1642 36 1361 
7932 -0.852323 0.246569 2.676155 82 147 180 0 9 1783 10 1772 11 1643 13 1724 27 1723 38 1397 
7933 -1.048407 -0.235492 3.091377 103 163 198 0 1 1648 2 1691 3 1884 6 1978 7 2049 8 1973 9 1784 10 1773 15 1542 16 1405 17 1339 18 1490 21 1760 22 1779 23 1822 24 1765 26 1728 28 1693 29 1707 30 1669 31 1629 32 1573 33 1504 34 1510 35 1410 36 1362 38 1398 39 1393 40 1431 41 1414 42 1449 
7934 -0.941059 0.126942 2.925655 91 159 191 0 9 1785 10 1774 13 1725 30 1670 31 1630 34 1511 35 1411 40 1432 
7935 -0.687581 0.389856 2.472982 87 140 168 0 9 1786 10 1775 15 1543 16 1406 41 1415 
7938 -0.884573 -0.056435 2.956414 82 135 170 0 9 1787 10 1776 11 1644 21 1761 44 1360 47 1072 
7941 -1.112968 -0.024676 3.835310 83 145 181 0 9 1788 10 1777 11 1645 
7942 -0.692220 0.117247 2.900251 82 144 180 0 9 1789 10 1778 30 1671 31 1631 32 1574 33 1505 34 1512 35 1412 36 1363 52 1258 58 1274 59 1287 
7943 -0.586867 0.309497 2.686752 34 99 130 0 9 1790 10 1779 11 1646 12 1665 29 1708 44 1361 45 1337 46 1190 47 1073 50 906 53 1307 55 1260 57 1228 59 1288 69 1177 
7945 -0.605079 0.217809 2.772507 40 105 138 0 2 1692 7 2050 9 1791 10 1780 13 1726 15 1544 17 1340 23 1823 25 1813 28 1694 33 1506 35 1413 39 1394 43 1405 44 1362 47 1074 52 1259 56 1211 57 1229 64 1213 69 1178 71 1173 79 957 
7946 -0.615615 0.111276 2.947323 40 97 131 0 5 2023 6 1979 9 1792 10 1781 13 1727 15 1545 16 1407 21 1762 25 1814 26 1729 27 1724 28 1695 30 1672 31 1632 32 1575 33 1507 39 1395 40 1433 
7948 -0.433607 0.294518 2.730322 38 100 136 0 1 1649 2 1693 4 2069 5 2024 6 1980 7 2051 9 1793 10 1782 11 1647 13 1728 16 1408 19 1639 21 1763 22 1780 24 1766 25 1815 26 1730 27 1725 29 1709 30 1673 31 1633 37 1416 52 1260 69 1179 70 1159 
7950 -0.446731 0.006110 3.040888 87 149 181 0 9 1794 10 1783 14 1687 29 1710 36 1364 38 1399 46 1191 47 1075 60 1272 61 1280 70 1160 72 1125 78 922 
7954 -0.398189 0.075390 2.984389 38 88 124 0 9 1795 10 1784 13 1729 15 1546 19 1640 21 1764 29 1711 35 1414 42 1450 47 1076 48 1046 49 891 51 1142 54 1257 57 1230 58 1275 60 1273 77 890 
7956 -0.276425 0.309586 2.719630 84 135 169 0 2 1694 3 1885 4 2070 9 1796 10 1785 24 1767 26 1731 27 1726 28 1696 31 1634 32 1576 36 1365 44 1363 
7958 -0.311949 0.534699 3.169127 93 151 182 0 9 1797 10 1786 11 1648 
7965 -0.180423 0.220077 2.885787 134 196 217 0 7 2052 8 1974 9 1798 10 1787 14 1688 19 1641 20 1714 21 1765 22 1781 23 1824 25 1816 26 1732 27 1727 28 1697 34 1513 40 1434 41 1416 42 1451 
7967 -0.156195 0.218970 2.832612 93 154 182 0 5 2025 6 1981 8 1975 9 1799 10 1788 11 1649 12 1666 19 1642 21 1766 22 1782 23 1825 
7968 -0.147944 0.295919 2.786069 60 119 145 0 9 1800 10 1789 11 1650 51 1143 105 834 110 827 111 839 122 776 130 734 
7970 -5.359780 0.890343 64.667363 32 97 126 0 9 1801 10 1790 12 1667 
7971 -0.128953 0.417928 2.714342 37 91 123 0 2 1695 3 1886 9 1802 10 1791 11 1651 13 1730 19 1643 28 1698 30 1674 31 1635 40 1435 42 1452 43 1406 51 1144 52 1261 55 1261 60 1274 64 1214 69 1180 72 1126 73 1116 74 1034 75 994 76 942 77 891 78 923 83 931 86 997 88 991 95 899 97 887 101 916 108 842 124 778 
7974 -0.106512 0.393531 2.739182 92 147 174 0 1 1650 2 1696 3 1887 6 1982 7 2053 8 1976 9 1803 10 1792 11 1652 12 1668 14 1689 15 1547 22 1783 23 1826 28 1699 30 1675 33 1508 36 1366 39 1396 40 1436 43 1407 45 1338 46 1192 48 1047 49 892 51 1145 52 1262 53 1308 54 1258 55 1262 57 1231 58 1276 59 1289 60 1275 61 1281 62 1233 63 1225 65 1195 66 1179 67 1182 68 1172 69 1181 70 1161 71 1174 72 1127 73 1117 74 1035 76 943 77 892 78 924 79 958 80 960 84 912 86 998 89 928 90 908 91 910 92 915 94 932 101 917 108 843 112 848 113 786 116 836 118 805 119 778 122 777 124 779 125 774 126 753 134 685 135 681 137 644 150 573 
7975 -0.095081 0.268229 2.795174 47 103 133 0 9 1804 10 1793 23 1827 26 1733 60 1276 64 1215 65 1196 79 959 87 1004 89 929 96 870 144 634 
7976 -0.072499 0.445600 2.684193 47 107 142 0 5 2026 9 1805 10 1794 11 1653 12 1669 13 1731 15 1548 16 1409 19 1644 22 1784 23 1828 24 1768 31 1636 32 1577 36 1367 37 1417 38 1400 39 1397 40 1437 41 1417 42 1453 43 1408 44 1364 45 1339 46 1193 47 1077 48 1048 50 907 54 1259 56 1212 57 1232 58 1277 59 1290 60 1277 61 1282 63 1226 64 1216 65 1197 66 1180 69 1182 71 1175 77 893 84 913 96 871 111 840 
7978 -0.035547 0.374731 2.743072 29 81 113 0 2 1697 6 1983 7 2054 9 1806 10 1795 11 1654 12 1670 13 1732 14 1690 15 1549 16 1410 18 1491 19 1645 20 1715 24 1769 26 1734 27 1728 29 1712 30 1676 31 1637 32 1578 33 1509 34 1514 35 1415 38 1401 39 1398 41 1418 43 1409 44 1365 45 1340 46 1194 47 1078 48 1049 49 893 50 908 51 1146 52 1263 53 1309 54 1260 55 1263 56 1213 57 1233 58 1278 59 1291 60 1278 61 1283 62 1234 63 1227 65 1198 67 1183 68 1173 69 1183 70 1162 73 1118 74 1036 75 995 76 944 77 894 82 998 84 914 85 961 86 999 87 1005 89 930 90 909 91 911 93 905 95 900 96 872 97 888 98 840 99 820 100 851 101 918 102 894 103 899 104 847 105 835 106 859 107 798 108 844 109 862 115 837 116 837 117 858 118 806 119 779 120 760 121 725 122 778 123 795 126 754 129 705 131 702 132 708 135 682 137 645 138 656 139 670 140 662 142 657 143 606 145 654 148 639 149 580 151 579 152 548 153 547 154 564 155 549 156 527 157 540 159 537 161 499 163 481 164 439 165 402 166 405 167 399 168 348 
7984 0.016719 0.449947 2.719143 60 121 155 0 9 1807 10 1796 20 1716 69 1184 71 1176 100 852 138 657 143 607 
7985 0.018774 0.425955 2.736558 34 88 120 0 9 1808 10 1797 11 1655 12 1671 14 1691 20 1717 21 1767 24 1770 26 1735 29 1713 34 1515 35 1416 37 1418 41 1419 44 1366 48 1050 54 1261 55 1264 57 1234 83 932 86 1000 89 931 91 912 93 906 94 933 112 849 120 761 125 775 129 706 141 670 145 655 146 609 153 548 154 565 157 541 158 520 
7987 0.029464 0.295471 3.060108 103 157 187 0 9 1809 10 1798 13 1733 14 1692 15 1550 
7991 0.037706 0.407601 2.744205 110 166 196 0 9 1810 10 1799 14 1693 17 1341 24 1771 26 1736 32 1579 33 1510 34 1516 37 1419 40 1438 42 1454 45 1341 46 1195 47 1079 49 894 50 909 54 1262 56 1214 73 1119 75 996 76 945 79 960 80 961 81 980 83 933 85 962 87 1006 89 932 90 910 91 913 97 889 98 841 99 821 100 853 101 919 103 900 105 836 108 845 109 863 110 828 111 841 113 787 115 838 117 859 120 762 122 779 127 765 129 707 133 722 134 686 135 683 137 646 138 658 139 671 140 663 142 658 143 608 144 635 146 610 147 608 148 640 149 581 150 574 151 580 154 566 155 550 157 542 158 521 159 538 160 503 162 496 163 482 165 403 166 406 167 400 168 349 169 362 170 343 171 333 172 350 174 351 175 325 176 327 178 309 179 317 180 301 181 278 
7992 0.044948 0.166464 3.018963 114 179 210 0 9 1811 10 1800 21 1768 29 1714 32 1580 33 1511 34 1517 37 1420 38 1402 40 1439 45 1342 46 1196 86 1001 88 992 101 920 119 780 121 726 158 522 160 504 161 500 176 328 179 318 
7996 0.054669 0.439484 2.714392 40 90 126 0 1 1651 2 1698 3 1888 4 2071 5 2027 6 1984 7 2055 8 1977 9 1812 10 1801 13 1734 14 1694 15 1551 16 1411 17 1342 18 1492 19 1646 20 1718 22 1785 23 1829 24 1772 25 1817 26 1737 27 1729 28 1700 29 1715 30 1677 31 1638 32 1581 33 1512 34 1518 36 1368 38 1403 40 1440 41 1420 42 1455 43 1410 44 1367 48 1051 49 895 51 1147 52 1264 53 1310 55 1265 56 1215 58 1279 60 1279 62 1235 63 1228 64 1217 65 1199 66 1181 67 1184 68 1174 69 1185 70 1163 71 1177 72 1128 73 1120 74 1037 76 946 77 895 78 925 79 961 80 962 81 981 82 999 84 915 85 963 86 1002 87 1007 88 993 90 911 92 916 93 907 94 934 95 901 96 873 97 890 98 842 99 822 100 854 101 921 102 895 104 848 106 860 107 799 108 846 109 864 110 829 112 850 113 788 114 809 115 839 116 838 117 860 118 807 119 781 120 763 121 727 122 780 123 796 124 780 126 755 127 766 128 749 129 708 130 735 131 703 132 709 133 723 134 687 135 684 136 677 137 647 138 659 141 671 142 659 143 609 144 636 145 656 146 611 147 609 148 641 149 582 150 575 151 581 152 549 153 549 154 567 156 528 157 543 158 523 159 539 160 505 161 501 162 497 163 483 164 440 165 404 166 407 167 401 168 350 169 363 170 344 171 334 172 351 173 334 175 326 176 329 178 310 182 269 183 281 184 272 
7997 0.068010 0.358560 2.801623 33 87 124 0 9 1813 10 1802 11 1656 14 1695 15 1552 29 1716 34 1519 35 1417 36 1369 37 1421 40 1441 41 1421 42 1456 43 1411 45 1343 46 1197 52 1265 53 1311 59 1292 63 1229 66 1182 68 1175 75 997 77 896 78 926 80 963 82 1000 83 934 84 916 85 964 90 912 91 914 100 855 101 922 102 896 120 764 131 704 133 724 134 688 135 685 136 678 138 660 140 664 141 672 147 610 148 642 157 544 160 506 161 502 166 408 175 327 178 311 
8007 0.120434 0.331334 2.842842 84 138 170 0 9 1814 10 1803 60 1280 63 1230 64 1218 99 823 118 808 152 550 163 484 165 405 168 351 
8012 0.278993 -0.368902 3.435338 53 117 155 0 1 1652 9 1815 10 1804 12 1672 13 1735 14 1696 15 1553 16 1412 17 1343 18 1493 19 1647 20 1719 21 1769 22 1786 27 1730 28 1701 33 1513 35 1418 38 1404 52 1266 54 1263 55 1266 57 1235 58 1280 60 1281 63 1231 71 1178 73 1121 75 998 80 964 85 965 88 994 93 908 95 902 120 765 122 781 125 776 126 756 134 689 138 661 141 673 142 660 144 637 145 657 146 612 154 568 155 551 156 529 157 545 160 507 177 302 178 312 181 279 182 270 184 273 185 268 186 245 189 222 190 218 196 174 197 160 
8014 0.265719 -0.041612 3.209584 42 97 136 0 9 1816 10 1805 11 1657 94 935 
8016 0.335613 -0.295046 3.408965 54 126 159 0 9 1817 10 1806 11 1658 20 1720 31 1639 53 1312 59 1293 63 1232 82 1001 151 582 
8023 -0.782251 0.437308 2.362028 105 168 197 0 1 1653 2 1699 3 1889 4 2072 5 2028 6 1985 8 1978 9 1818 10 1807 11 1659 12 1673 13 1736 14 1697 15 1554 16 1413 17 1344 18 1494 19 1648 20 1721 21 1770 22 1787 23 1830 24 1773 25 1818 
8026 -0.651840 0.372620 2.554805 37 85 126 0 9 1819 11 1660 15 1555 19 1649 25 1819 27 1731 49 896 
8027 -0.780290 0.013865 2.994352 39 101 135 0 2 1700 7 2056 9 1820 10 1808 11 1661 12 1674 14 1698 15 1556 20 1722 21 1771 22 1788 23 1831 34 1520 35 1419 37 1422 40 1442 43 1412 44 1368 48 1052 49 897 50 910 66 1183 150 576 177 303 
8028 -0.640273 -0.404267 3.167961 42 99 137 0 9 1821 11 1662 20 1723 22 1789 24 1774 25 1820 33 1514 39 1399 40 1443 
8029 -0.685552 -0.427943 3.307374 42 99 137 0 7 2057 9 1822 11 1663 20 1724 22 1790 23 1832 24 1775 25 1821 32 1582 33 1515 36 1370 39 1400 40 1444 43 1413 
8031 -0.317541 0.537219 2.481114 41 110 144 0 1 1654 3 1890 4 2073 6 1986 7 2058 9 1823 11 1664 17 1345 18 1495 19 1650 20 1725 21 1772 22 1791 23 1833 24 1776 25 1822 28 1702 29 1717 31 1640 33 1516 36 1371 39 1401 41 1422 42 1457 43 1414 51 1148 60 1282 66 1184 68 1176 69 1186 81 982 82 1002 83 935 84 917 85 966 87 1008 88 995 89 933 90 913 91 915 92 917 93 909 94 936 100 856 107 800 108 847 
8034 -0.338552 0.000863 3.104234 38 100 136 0 3 1891 4 2074 5 2029 9 1824 10 1809 11 1665 12 1675 13 1737 22 1792 23 1834 26 1738 27 1732 32 1583 40 1445 41 1423 52 1267 62 1236 69 1187 70 1164 74 1038 81 983 82 1003 96 874 102 897 
8035 -0.164867 0.408602 2.719986 34 92 123 0 1 1655 3 1892 5 2030 8 1979 9 1825 10 1810 11 1666 14 1699 20 1726 21 1773 22 1793 23 1835 24 1777 31 1641 34 1521 51 1149 52 1268 54 1264 55 1267 56 1216 57 1236 58 1281 59 1294 60 1283 61 1284 63 1233 74 1039 
8036 -0.140704 0.343565 2.766703 32 87 114 0 9 1826 11 1667 20 1727 21 1774 29 1718 42 1458 
8038 -0.075985 0.260766 2.802870 105 157 187 0 5 2031 7 2059 9 1827 11 1668 12 1676 35 1420 56 1217 57 1237 58 1282 61 1285 75 999 94 937 105 837 108 848 114 810 139 672 140 665 142 661 
8039 -0.060945 0.184693 2.979266 107 168 196 0 9 1828 10 1811 11 1669 13 1738 25 1823 29 1719 31 1642 56 1218 65 1200 
8040 -0.045201 0.398200 2.736774 84 144 180 0 2 1701 9 1829 11 1670 15 1557 16 1414 20 1728 25 1824 26 1739 27 1733 28 1703 29 1720 31 1643 33 1517 34 1522 35 1421 36 1372 37 1423 38 1405 40 1446 41 1424 42 1459 43 1415 44 1369 45 1344 46 1198 47 1080 54 1265 55 1268 58 1283 59 1295 60 1284 61 1286 62 1237 63 1234 64 1219 65 1201 67 1185 75 1000 76 947 77 897 78 927 80 965 81 984 82 1004 83 936 84 918 85 967 86 1003 88 996 91 916 93 910 94 938 97 891 98 843 99 824 100 857 101 923 102 898 105 838 106 861 107 801 108 849 109 865 111 842 112 851 113 789 116 839 117 861 118 809 120 766 122 782 123 797 124 781 125 777 126 757 127 767 130 736 131 705 132 710 133 725 134 690 135 686 137 648 138 662 139 673 141 674 142 662 143 610 145 658 146 613 147 611 154 569 155 552 156 530 157 546 158 524 161 503 163 485 164 441 165 406 167 402 168 352 
8041 -0.045158 0.196283 2.949463 51 106 137 0 5 2032 6 1987 7 2060 8 1980 9 1830 11 1671 12 1677 13 1739 14 1700 15 1558 16 1415 18 1496 19 1651 25 1825 26 1740 29 1721 30 1678 35 1422 37 1424 38 1406 41 1425 42 1460 43 1416 44 1370 46 1199 47 1081 48 1053 57 1238 60 1285 64 1220 65 1202 66 1185 67 1186 70 1165 72 1129 79 962 80 966 85 968 87 1009 95 903 105 839 106 862 110 830 111 843 116 840 120 767 128 750 137 649 142 663 143 611 145 659 151 583 153 550 154 570 
8045 0.192398 -0.528277 3.543276 59 128 162 0 9 1831 11 1672 22 1794 23 1836 35 1423 42 1461 43 1417 44 1371 66 1186 67 1187 78 928 82 1005 102 899 111 844 124 782 
8046 0.156426 0.297584 2.892613 126 182 214 0 9 1832 11 1673 18 1497 27 1734 37 1425 39 1402 41 1426 42 1462 104 849 113 790 147 612 182 271 198 176 
8047 0.174073 0.296964 2.881254 35 83 122 0 2 1702 4 2075 5 2033 6 1988 7 2061 8 1981 9 1833 11 1674 12 1678 13 1740 19 1652 20 1729 21 1775 22 1795 23 1837 24 1778 25 1826 26 1741 30 1679 31 1644 34 1523 36 1373 41 1427 59 1296 61 1287 62 1238 63 1235 147 613 
8048 0.305750 0.323004 2.871354 45 98 133 0 5 2034 6 1989 9 1834 11 1675 24 1779 31 1645 55 1269 72 1130 123 798 124 783 125 778 127 768 128 751 130 737 140 666 150 577 155 553 161 504 170 345 181 280 
8051 -1.151269 -0.342495 3.241194 76 129 164 0 9 1835 12 1679 29 1722 31 1646 32 1584 37 1426 39 1403 
8052 -0.919100 0.097628 2.822372 51 116 151 0 9 1836 12 1680 14 1701 16 1416 18 1498 26 1742 27 1735 30 1680 32 1585 33 1518 35 1424 36 1374 38 1407 39 1404 41 1428 42 1463 
8053 -0.822569 0.290979 2.635877 36 101 136 0 9 1837 12 1681 14 1702 26 1743 29 1723 32 1586 36 1375 
8056 -0.257081 0.106163 3.009080 90 155 186 0 9 1838 12 1682 14 1703 21 1776 23 1838 24 1780 26 1744 30 1681 32 1587 33 1519 40 1447 41 1429 42 1464 43 1418 45 1345 46 1200 47 1082 48 1054 50 911 52 1269 53 1313 57 1239 58 1284 60 1286 61 1288 64 1221 65 1203 67 1188 69 1188 70 1166 71 1179 73 1122 77 898 82 1006 83 937 84 919 85 969 86 1004 88 997 90 914 91 917 92 918 93 911 94 939 96 875 97 892 98 844 99 825 100 858 101 924 102 900 103 901 104 850 106 863 107 802 108 850 109 866 110 831 111 845 112 852 113 791 115 840 116 841 117 862 118 810 119 782 120 768 121 728 123 799 124 784 126 758 127 769 128 752 129 709 
8058 -0.147824 0.250023 2.814871 48 106 135 0 4 2076 5 2035 6 1990 8 1982 9 1839 11 1676 12 1683 13 1741 14 1704 15 1559 19 1653 20 1730 21 1777 22 1796 23 1839 24 1781 25 1827 26 1745 27 1736 28 1704 29 1724 31 1647 33 1520 36 1376 37 1427 38 1408 40 1448 41 1430 42 1465 43 1419 56 1219 57 1240 66 1187 88 998 93 912 
8059 -0.046936 0.230529 2.787300 119 181 206 0 9 1840 12 1684 19 1654 
8064 0.127333 0.294505 2.864659 39 94 129 0 9 1841 12 1685 26 1746 58 1285 64 1222 74 1040 
8065 0.126003 0.298749 2.877007 39 94 129 0 2 1703 3 1893 4 2077 5 2036 6 1991 7 2062 8 1983 9 1842 10 1812 11 1677 12 1686 13 1742 14 1705 15 1560 16 1417 17 1346 18 1499 19 1655 20 1731 21 1778 22 1797 23 1840 24 1782 26 1747 27 1737 28 1705 29 1725 30 1682 31 1648 32 1588 33 1521 34 1524 35 1425 36 1377 37 1428 38 1409 39 1405 40 1449 41 1431 42 1466 44 1372 45 1346 46 1201 47 1083 48 1055 49 898 50 912 52 1270 53 1314 54 1266 55 1270 56 1220 57 1241 58 1286 59 1297 60 1287 61 1289 62 1239 63 1236 64 1223 65 1204 66 1188 68 1177 69 1189 70 1167 71 1180 72 1131 73 1123 74 1041 75 1001 76 948 77 899 78 929 79 963 80 967 81 985 82 1007 83 938 84 920 85 970 86 1005 87 1010 88 999 89 934 90 915 91 918 92 919 93 913 94 940 95 904 96 876 97 893 98 845 99 826 100 859 101 925 102 901 103 902 104 851 105 840 106 864 107 803 108 851 109 867 110 832 112 853 113 792 114 811 115 841 116 842 117 863 118 811 120 769 121 729 122 783 123 800 124 785 125 779 126 759 128 753 129 710 130 738 132 711 133 726 134 691 135 687 137 650 138 663 139 674 141 675 142 664 143 612 144 638 145 660 146 614 147 614 148 643 149 583 150 578 151 584 152 551 153 551 154 571 155 554 156 531 157 547 158 525 159 540 160 508 162 498 163 486 164 442 165 407 166 409 167 403 168 353 169 364 170 346 171 335 172 352 173 335 174 352 175 328 176 330 177 304 178 313 179 319 180 302 181 281 182 272 183 282 185 269 188 217 190 219 191 204 
8069 -0.869282 -0.030307 2.973735 32 85 124 0 1 1656 3 1894 9 1843 13 1743 15 1561 16 1418 27 1738 37 1429 43 1420 44 1373 45 1347 46 1202 
8070 -0.571032 0.471371 3.026198 62 119 153 0 9 1844 13 1744 14 1706 
8072 -0.208422 0.244338 2.823575 70 131 161 0 9 1845 13 1745 88 1000 110 833 
8073 -0.186367 0.289632 2.789309 25 82 109 0 6 1992 8 1984 9 1846 12 1687 13 1746 14 1707 19 1656 20 1732 21 1779 23 1841 24 1783 25 1828 26 1748 27 1739 28 1706 29 1726 32 1589 33 1522 35 1426 40 1450 41 1432 44 1374 51 1150 52 1271 58 1287 59 1298 61 1290 62 1240 63 1237 64 1224 69 1190 82 1008 83 939 91 919 95 905 102 902 
8074 -0.152160 0.311460 2.768474 50 104 134 0 1 1657 2 1704 3 1895 4 2078 5 2037 6 1993 7 2063 8 1985 9 1847 10 1813 11 1678 12 1688 13 1747 14 1708 15 1562 16 1419 18 1500 19 1657 20 1733 21 1780 22 1798 23 1842 24 1784 25 1829 26 1749 27 1740 28 1707 29 1727 30 1683 31 1649 32 1590 33 1523 34 1525 35 1427 36 1378 37 1430 38 1410 39 1406 40 1451 41 1433 42 1467 43 1421 44 1375 45 1348 46 1203 47 1084 48 1056 49 899 50 913 51 1151 52 1272 53 1315 54 1267 55 1271 56 1221 57 1242 58 1288 59 1299 60 1288 61 1291 62 1241 63 1238 64 1225 65 1205 66 1189 67 1189 68 1178 69 1191 70 1168 71 1181 72 1132 73 1124 74 1042 75 1002 76 949 77 900 79 964 80 968 81 986 82 1009 83 940 84 921 85 971 86 1006 87 1011 88 1001 90 916 91 920 92 920 93 914 94 941 95 906 96 877 97 894 98 846 99 827 100 860 101 926 102 903 103 903 104 852 105 841 106 865 107 804 108 852 109 868 110 834 112 854 114 812 115 842 116 843 117 864 118 812 120 770 121 730 122 784 123 801 124 786 125 780 126 760 127 770 128 754 129 711 130 739 131 706 132 712 133 727 134 692 136 679 137 651 138 664 139 675 140 667 141 676 142 665 143 613 144 639 145 661 
8075 -0.098004 0.102457 3.033613 111 176 207 0 9 1848 13 1748 14 1709 15 1563 19 1658 21 1781 22 1799 23 1843 24 1785 25 1830 26 1750 27 1741 28 1708 29 1728 30 1684 32 1591 36 1379 42 1468 43 1422 44 1376 45 1349 46 1204 47 1085 49 900 50 914 51 1152 53 1316 54 1268 55 1272 58 1289 61 1292 64 1226 65 1206 67 1190 68 1179 69 1192 70 1169 97 895 116 844 
8076 0.348624 0.443200 2.777536 52 112 145 0 9 1849 13 1749 15 1564 20 1734 22 1800 27 1742 30 1685 31 1650 34 1526 40 1452 41 1434 44 1377 50 915 57 1243 60 1289 61 1293 62 1242 63 1239 64 1227 65 1207 68 1180 69 1193 70 1170 71 1182 76 950 77 901 78 930 81 987 86 1007 87 1012 92 921 95 907 96 878 103 904 105 842 106 866 107 805 111 846 118 813 119 783 120 771 121 731 124 787 125 781 126 761 128 755 129 712 130 740 131 707 133 728 134 693 137 652 139 676 140 668 144 640 149 584 152 552 153 552 156 532 157 548 158 526 159 541 160 509 162 499 164 443 165 408 167 404 168 354 169 365 173 336 174 353 175 329 179 320 181 282 183 283 184 274 186 246 187 231 188 218 190 220 191 205 192 196 193 183 195 179 199 169 200 166 208 94 217 71 219 60 220 71 227 43 228 34 
8080 -0.809453 0.177751 2.734214 85 152 183 0 1 1658 2 1705 3 1896 4 2079 5 2038 6 1994 7 2064 9 1850 10 1814 13 1750 14 1710 15 1565 18 1501 19 1659 20 1735 22 1801 23 1844 24 1786 25 1831 26 1751 27 1743 28 1709 29 1729 31 1651 32 1592 33 1524 34 1527 35 1428 36 1380 37 1431 38 1411 39 1407 40 1453 41 1435 42 1469 43 1423 44 1378 45 1350 46 1205 
8081 -0.440384 0.368008 2.583947 62 119 153 0 9 1851 13 1751 14 1711 29 1730 
8082 -0.273571 0.183737 2.929663 84 141 175 0 9 1852 14 1712 16 1420 20 1736 21 1782 22 1802 26 1752 27 1744 28 1710 29 1731 37 1432 38 1412 39 1408 41 1436 42 1470 52 1273 71 1183 
8086 0.322890 -0.195580 3.736324 38 103 138 0 9 1853 14 1713 27 1745 28 1711 30 1686 
8089 -0.140616 0.287964 2.789023 101 164 191 0 3 1897 4 2080 5 2039 6 1995 7 2065 8 1986 9 1854 12 1689 13 1752 15 1566 18 1502 19 1660 20 1737 21 1783 22 1803 23 1845 25 1832 26 1753 27 1746 28 1712 29 1732 30 1687 39 1409 40 1454 42 1471 43 1424 44 1379 45 1351 47 1086 48 1057 51 1153 52 1274 53 1317 56 1222 57 1244 58 1290 59 1300 60 1290 62 1243 63 1240 65 1208 66 1190 67 1191 68 1181 69 1194 70 1171 71 1184 72 1133 73 1125 74 1043 78 931 81 988 85 972 86 1008 87 1013 88 1002 90 917 92 922 94 942 95 908 96 879 97 896 101 927 102 904 103 905 104 853 107 806 108 853 110 835 111 847 112 855 114 813 115 843 117 865 120 772 121 732 122 785 123 802 127 771 131 708 135 688 141 677 143 614 147 615 
8090 0.009647 0.253270 2.909568 42 97 132 0 9 1855 15 1567 16 1421 40 1455 41 1437 
8091 0.119447 0.281933 2.926604 93 143 172 0 9 1856 15 1568 40 1456 
8096 -0.670105 0.369351 2.559687 86 145 180 0 1 1659 4 2081 5 2040 6 1996 9 1857 13 1753 14 1714 18 1503 19 1661 20 1738 21 1784 22 1804 23 1846 24 1787 25 1833 26 1754 27 1747 28 1713 29 1733 31 1652 32 1593 33 1525 34 1528 35 1429 39 1410 41 1438 43 1425 44 1380 51 1154 58 1291 59 1301 
8097 -0.500478 0.378773 2.656181 28 83 118 0 9 1858 18 1504 36 1381 
8098 0.354059 0.111773 3.235188 89 142 179 0 9 1859 17 1347 18 1505 
8100 -0.097839 0.101226 3.034372 111 176 207 0 9 1860 18 1506 19 1662 21 1785 23 1847 24 1788 25 1834 81 989 
8103 0.201135 0.188094 2.965222 93 148 183 0 9 1861 19 1663 26 1755 28 1714 76 951 77 902 86 1009 87 1014 88 1003 97 897 107 807 111 848 125 782 126 762 134 694 157 549 162 500 168 355 170 347 172 353 180 303 183 284 
8104 0.213478 0.382899 2.826489 95 157 189 0 9 1862 19 1664 20 1739 34 1529 45 1352 46 1206 47 1087 48 1058 49 901 50 916 51 1155 52 1275 55 1273 56 1223 57 1245 76 952 77 903 78 932 79 965 88 1004 90 918 91 921 100 861 103 906 105 843 117 866 118 814 119 784 121 733 124 788 125 783 178 314 206 105 
8105 0.523590 0.329839 2.858555 120 176 208 0 9 1863 19 1665 20 1740 133 729 
8110 0.133731 0.348981 2.835434 98 153 188 0 1 1660 3 1898 4 2082 5 2041 6 1997 8 1987 9 1864 10 1815 11 1679 12 1690 13 1754 14 1715 17 1348 18 1507 20 1741 21 1786 22 1805 23 1848 24 1789 25 1835 26 1756 27 1748 28 1715 29 1734 30 1688 31 1653 32 1594 33 1526 35 1430 36 1382 37 1433 39 1411 40 1457 41 1439 42 1472 43 1426 44 1381 45 1353 46 1207 51 1156 53 1318 54 1269 55 1274 56 1224 57 1246 63 1241 64 1228 65 1209 66 1191 67 1192 68 1182 69 1195 70 1172 72 1134 73 1126 76 953 78 933 79 966 81 990 86 1010 87 1015 88 1005 89 935 90 919 92 923 94 943 95 909 96 880 97 898 99 828 101 928 102 905 103 907 105 844 106 867 109 869 110 836 111 849 112 856 113 793 115 844 117 867 118 815 120 773 121 734 122 786 123 803 124 789 125 784 126 763 127 772 128 756 130 741 131 709 132 713 133 730 134 695 135 689 136 680 137 653 138 665 139 677 140 669 142 666 144 641 145 662 146 615 147 616 148 644 149 585 151 585 152 553 153 553 154 572 155 555 156 533 158 527 159 542 163 487 164 444 165 409 166 410 167 405 168 356 169 366 170 348 171 336 172 354 174 354 175 330 176 331 177 305 180 304 181 283 183 285 186 247 188 219 190 221 192 197 
8113 -0.151970 0.534117 2.542665 38 100 134 0 9 1865 10 1816 13 1755 21 1787 22 1806 25 1836 28 1716 29 1735 67 1193 68 1183 69 1196 70 1173 
8115 0.111665 0.424852 2.760577 70 127 161 0 2 1706 3 1899 4 2083 5 2042 6 1998 9 1866 10 1817 18 1508 21 1788 23 1849 25 1837 31 1654 33 1527 65 1210 67 1194 68 1184 81 991 84 922 103 908 104 854 121 735 124 790 126 764 160 510 161 505 168 357 172 355 181 284 
8119 -1.056091 -0.298437 3.161507 28 83 122 0 9 1867 10 1818 22 1807 26 1757 
8121 -0.362828 0.212426 2.830714 58 123 154 0 1 1661 2 1707 4 2084 5 2043 6 1999 7 2066 8 1988 9 1868 11 1680 12 1691 13 1756 14 1716 16 1422 17 1349 22 1808 23 1850 24 1790 25 1838 26 1758 27 1749 28 1717 29 1736 30 1689 31 1655 32 1595 35 1431 36 1383 40 1458 41 1440 63 1242 64 1229 98 847 
8122 -0.146048 0.407771 2.713429 40 93 128 0 9 1869 22 1809 60 1291 108 854 121 736 
8129 0.090835 0.271316 2.896527 75 133 164 0 9 1870 23 1851 34 1530 56 1225 
8130 0.090550 0.366644 2.818348 39 90 121 0 9 1871 11 1681 23 1852 42 1473 
8132 0.177727 0.356281 2.749455 37 98 126 0 9 1872 23 1853 24 1791 25 1839 31 1656 
8133 0.674883 -0.023218 3.142614 46 110 150 0 8 1989 9 1873 13 1757 23 1854 24 1792 27 1750 28 1718 34 1531 39 1412 43 1427 55 1275 59 1302 70 1174 88 1006 91 922 92 924 101 929 102 906 116 845 117 868 118 816 123 804 124 791 125 785 126 765 127 773 128 757 133 731 134 696 136 681 138 666 148 645 151 586 152 554 154 573 157 550 160 511 161 506 164 445 165 410 166 411 182 273 184 275 201 142 204 116 206 106 207 98 209 83 218 63 
8138 0.290086 0.424510 2.825928 98 153 188 0 9 1874 24 1793 105 845 106 868 114 814 121 737 141 678 143 615 144 642 145 663 150 579 155 556 156 534 157 551 170 349 172 356 178 315 179 321 183 286 188 220 193 184 
8139 -0.176299 0.302444 2.793592 50 104 136 0 9 1875 20 1742 25 1840 
8141 -0.239117 0.255059 2.823013 108 170 199 0 9 1876 26 1759 30 1690 
8143 -1.107253 -0.537297 3.439225 38 103 142 0 9 1877 26 1760 27 1751 29 1737 30 1691 47 1088 
8145 -0.433764 0.104804 2.951600 100 158 189 0 5 2044 6 2000 7 2067 8 1990 9 1878 27 1752 40 1459 
8146 0.016999 0.379967 2.754045 43 93 125 0 7 2068 9 1879 23 1855 27 1753 28 1719 34 1532 88 1007 
8149 -0.281973 0.259893 2.805652 52 113 143 0 9 1880 28 1720 29 1738 
8150 -0.244901 0.158448 2.884890 91 144 179 0 9 1881 28 1721 29 1739 
8151 -0.023952 0.224597 2.900431 57 109 138 0 9 1882 28 1722 36 1384 
8155 0.137894 0.314238 2.859160 43 99 129 0 9 1883 29 1740 133 732 
8157 -0.415616 0.137184 2.886872 42 103 133 0 9 1884 30 1692 67 1195 
8160 -0.153086 0.071620 3.043575 94 153 186 0 9 1885 30 1693 31 1657 54 1270 
8161 0.146202 0.380692 2.838470 56 110 139 0 9 1886 19 1666 30 1694 
8163 -0.210446 0.261157 2.805624 131 185 217 0 9 1887 31 1658 32 1596 33 1528 57 1247 61 1294 63 1243 64 1230 67 1196 69 1197 80 969 95 910 110 837 115 845 116 846 118 817 120 774 122 787 123 805 129 713 
8164 0.359681 -0.216460 3.331160 54 122 159 0 9 1888 20 1743 31 1659 
8165 -0.401807 0.440314 2.598855 43 111 142 0 9 1889 32 1597 67 1197 
8167 -0.095190 0.363389 2.688955 50 109 135 0 9 1890 32 1598 38 1413 
8168 0.179032 0.546746 2.663460 42 107 140 0 6 2001 9 1891 32 1599 33 1529 34 1533 36 1385 45 1354 70 1175 78 934 
8171 0.085141 0.370220 2.796468 79 133 163 0 9 1892 30 1695 33 1530 52 1276 129 714 
8173 0.109334 0.335787 2.841998 35 90 125 0 9 1893 29 1741 35 1432 60 1292 61 1295 
8175 -0.569810 -0.019437 3.052389 91 144 179 0 9 1894 37 1434 51 1157 60 1293 65 1211 
8176 -0.701981 0.245067 2.657312 27 81 116 0 9 1895 14 1717 39 1413 43 1428 
8178 -0.150640 0.278505 2.790683 115 173 202 0 1 1662 2 1708 3 1900 4 2085 5 2045 6 2002 7 2069 8 1991 9 1896 10 1819 11 1682 12 1692 13 1758 14 1718 15 1569 16 1423 17 1350 18 1509 19 1667 20 1744 21 1789 22 1810 23 1856 24 1794 25 1841 27 1754 28 1723 29 1742 30 1696 31 1660 32 1600 34 1534 36 1386 37 1435 38 1414 39 1414 40 1460 41 1441 43 1429 44 1382 46 1208 48 1059 49 902 50 917 51 1158 52 1277 53 1319 54 1271 55 1276 56 1226 57 1248 59 1303 60 1294 61 1296 62 1244 63 1244 64 1231 65 1212 66 1192 67 1198 69 1198 70 1176 71 1185 72 1135 73 1127 74 1044 75 1003 76 954 77 904 78 935 79 967 80 970 81 992 82 1010 83 941 84 923 85 973 87 1016 88 1008 89 936 90 920 91 923 92 925 93 915 94 944 95 911 96 881 97 899 98 848 99 829 100 862 101 930 102 907 103 909 104 855 105 846 106 869 107 808 108 855 109 870 110 838 111 850 112 857 115 846 116 847 117 869 118 818 119 785 120 775 122 788 124 792 125 786 126 766 127 774 128 758 129 715 130 742 131 710 132 714 133 733 134 697 135 690 136 682 137 654 138 667 139 678 140 670 141 679 142 667 143 616 144 643 145 664 
8181 -0.603380 0.369647 2.635839 30 95 130 0 9 1897 41 1442 46 1209 47 1089 
8183 -0.216368 0.239715 2.826634 47 110 137 0 9 1898 43 1430 45 1355 48 1060 51 1159 58 1292 59 1304 68 1185 70 1177 71 1186 74 1045 75 1004 78 936 79 968 86 1011 89 937 90 921 96 882 97 900 99 830 103 910 105 847 106 870 114 815 121 738 129 716 134 698 
8184 -0.071925 0.415789 2.724154 125 191 219 0 9 1899 43 1431 46 1210 71 1187 82 1011 102 908 117 870 120 776 121 739 128 759 130 743 140 671 141 680 147 617 152 555 155 557 156 535 157 552 
8185 0.329704 0.392385 2.826467 56 114 150 0 9 1900 43 1432 163 488 
8186 -0.425146 0.186223 2.804484 33 95 131 0 9 1901 44 1383 45 1356 46 1211 49 903 56 1227 57 1249 58 1293 59 1305 65 1213 68 1186 93 916 
8189 -0.820370 0.022886 3.151888 88 144 183 0 1 1663 2 1709 3 1901 5 2046 6 2003 7 2070 8 1992 9 1902 10 1820 11 1683 14 1719 15 1570 16 1424 17 1351 18 1510 19 1668 21 1790 22 1811 24 1795 25 1842 26 1761 27 1755 28 1724 29 1743 30 1697 31 1661 33 1531 34 1535 35 1433 36 1387 39 1415 40 1461 41 1443 42 1474 44 1384 45 1357 57 1250 58 1294 64 1232 65 1214 66 1193 67 1199 
8190 -0.698093 0.113121 2.882234 91 151 188 0 9 1903 48 1061 49 904 52 1278 
8192 0.113620 0.323622 2.843659 48 99 132 0 9 1904 51 1160 66 1194 82 1012 85 974 
8199 0.220802 0.591592 2.619635 38 96 135 0 9 1905 44 1385 62 1245 80 971 141 681 
8200 0.285063 0.515892 2.703811 41 101 138 0 9 1906 62 1246 65 1215 71 1188 73 1128 83 942 86 1012 102 909 118 819 131 711 142 668 145 665 146 616 148 646 151 587 161 507 162 501 163 489 177 306 181 285 
8203 -0.178138 0.395169 2.731223 40 91 122 0 9 1907 67 1200 72 1136 
8217 0.267826 0.076703 3.082462 96 152 188 0 9 1908 109 871 116 848 117 871 122 789 123 806 153 554 154 574 
8218 0.372040 0.524789 2.733141 38 99 134 0 9 1909 22 1812 123 807 125 787 131 712 152 556 155 558 159 543 180 305 181 286 188 221 
8219 0.360330 -0.030455 3.172735 83 140 174 0 9 1910 30 1698 129 717 
8224 -1.069678 0.072735 2.891027 92 156 190 0 1 1664 2 1710 4 2086 5 2047 6 2004 7 2071 8 1993 9 1911 10 1821 11 1684 12 1693 13 1759 14 1720 16 1425 17 1352 18 1511 19 1669 20 1745 21 1791 22 1813 24 1796 25 1843 26 1762 27 1756 28 1725 29 1744 
8228 -0.725790 0.159700 2.809141 43 103 140 0 7 2072 9 1912 10 1822 11 1685 12 1694 13 1760 14 1721 21 1792 22 1814 24 1797 37 1436 40 1462 42 1475 43 1433 44 1386 45 1358 57 1251 58 1295 59 1306 
8229 -0.715013 0.152647 2.815007 68 133 166 0 10 1823 11 1686 15 1571 16 1426 25 1844 30 1699 31 1662 32 1601 39 1416 40 1463 41 1444 42 1476 44 1387 45 1359 46 1212 47 1090 50 918 58 1296 59 1307 63 1245 
8230 -0.509452 0.555963 2.496916 42 105 135 0 10 1824 11 1687 12 1695 13 1761 
8231 -0.658923 -0.299611 2.964087 31 85 127 0 6 2005 8 1994 9 1913 10 1825 11 1688 28 1726 
8232 -0.570997 0.263510 2.721027 43 107 140 0 10 1826 11 1689 15 1572 
8233 -0.515456 0.337949 2.680093 88 156 188 0 4 2087 5 2048 10 1827 11 1690 26 1763 27 1757 28 1727 
8234 -0.489576 0.300969 2.677190 29 89 122 0 3 1902 6 2006 8 1995 10 1828 11 1691 13 1762 15 1573 16 1427 20 1746 23 1857 25 1845 26 1764 27 1758 28 1728 29 1745 33 1532 35 1434 37 1437 39 1417 41 1445 42 1477 43 1434 44 1388 45 1360 47 1091 48 1062 49 905 50 919 51 1161 52 1279 53 1320 54 1272 55 1277 57 1252 58 1297 59 1308 60 1295 61 1297 62 1247 63 1246 64 1233 65 1216 66 1195 68 1187 69 1199 70 1178 72 1137 74 1046 76 955 78 937 79 969 81 993 85 975 
8236 -0.437018 0.476586 2.591075 106 174 206 0 10 1829 11 1692 12 1696 16 1428 17 1353 18 1512 19 1670 21 1793 
8241 -0.379362 0.514383 2.594580 45 113 145 0 10 1830 11 1693 21 1794 
8242 -0.365110 0.208757 2.823611 97 162 193 0 1 1665 2 1711 3 1903 5 2049 6 2007 7 2073 8 1996 9 1914 10 1831 11 1694 12 1697 13 1763 14 1722 15 1574 17 1354 18 1513 19 1671 20 1747 21 1795 22 1815 23 1858 24 1798 25 1846 26 1765 27 1759 28 1729 29 1746 30 1700 31 1663 32 1602 34 1536 37 1438 38 1415 39 1418 40 1464 41 1446 42 1478 43 1435 51 1162 52 1280 53 1321 54 1273 56 1228 57 1253 58 1298 59 1309 60 1296 61 1298 64 1234 65 1217 66 1196 70 1179 80 972 81 994 82 1013 83 943 84 924 85 976 86 1013 87 1017 90 922 92 926 93 917 99 831 106 871 107 809 108 856 109 872 
8243 -0.462845 -0.440348 3.474350 40 107 144 0 6 2008 10 1832 11 1695 12 1698 13 1764 14 1723 15 1575 19 1672 20 1748 21 1796 23 1859 25 1847 26 1766 29 1747 31 1664 33 1533 34 1537 35 1435 36 1388 37 1439 38 1416 
8244 -0.343481 0.006435 3.093763 44 105 141 0 10 1833 11 1696 21 1797 22 1816 24 1799 69 1200 
8245 -0.336065 0.000619 3.095563 44 106 142 0 2 1712 3 1904 4 2088 5 2050 6 2009 8 1997 9 1915 10 1834 11 1697 12 1699 13 1765 14 1724 15 1576 17 1355 19 1673 20 1749 21 1798 22 1817 23 1860 24 1800 25 1848 26 1767 27 1760 28 1730 29 1748 30 1701 31 1665 32 1603 33 1534 34 1538 35 1436 36 1389 37 1440 38 1417 39 1419 40 1465 41 1447 44 1389 45 1361 51 1163 52 1281 53 1322 54 1274 55 1278 56 1229 57 1254 59 1310 60 1297 61 1299 62 1248 63 1247 64 1235 65 1218 66 1197 67 1201 68 1188 69 1201 70 1180 71 1189 73 1129 74 1047 75 1005 76 956 78 938 79 970 80 973 81 995 84 925 85 977 87 1018 89 938 91 924 92 927 94 945 96 883 97 901 98 849 101 931 102 910 106 872 107 810 110 839 111 851 112 858 113 794 116 849 118 820 
8249 -0.231682 0.190193 2.896405 114 170 197 0 10 1835 11 1698 13 1766 14 1725 16 1429 30 1702 31 1666 32 1604 36 1390 37 1441 39 1420 40 1466 41 1448 43 1436 44 1390 45 1362 46 1213 47 1092 48 1063 51 1164 52 1282 54 1275 55 1279 57 1255 58 1299 59 1311 60 1298 62 1249 63 1248 65 1219 67 1202 68 1189 69 1202 70 1181 71 1190 72 1138 74 1048 76 957 77 905 79 971 81 996 86 1014 87 1019 90 923 92 928 93 918 94 946 95 912 98 850 99 832 100 863 102 911 103 911 104 856 105 848 106 873 107 811 108 857 109 873 112 859 113 795 114 816 116 850 117 872 118 821 119 786 120 777 121 740 122 790 124 793 128 760 129 718 130 744 131 713 132 715 
8254 -0.224387 0.310018 3.049269 93 149 179 0 10 1836 11 1699 13 1767 
8257 -0.172784 0.235748 2.833835 52 113 137 0 10 1837 11 1700 21 1799 22 1818 24 1801 29 1749 38 1418 59 1312 
8258 -0.159948 0.228387 2.879870 68 129 157 0 10 1838 11 1701 24 1802 25 1849 
8260 -0.121670 0.254386 2.802583 94 151 179 0 1 1666 2 1713 3 1905 4 2089 5 2051 6 2010 7 2074 8 1998 10 1839 11 1702 12 1700 13 1768 14 1726 15 1577 18 1514 19 1674 20 1750 21 1800 22 1819 23 1861 24 1803 25 1850 26 1768 27 1761 28 1731 29 1750 30 1703 31 1667 32 1605 33 1535 34 1539 35 1437 36 1391 37 1442 38 1419 39 1421 40 1467 41 1449 42 1479 43 1437 44 1391 45 1363 51 1165 52 1283 53 1323 54 1276 55 1280 56 1230 57 1256 58 1300 59 1313 60 1299 61 1300 63 1249 64 1236 65 1220 66 1198 67 1203 68 1190 69 1203 70 1182 71 1191 72 1139 73 1130 74 1049 75 1006 76 958 77 906 78 939 80 974 81 997 82 1014 83 944 87 1020 88 1009 90 924 92 929 94 947 95 913 96 884 97 902 99 833 100 864 102 912 103 912 107 812 108 858 109 874 110 840 111 852 112 860 114 817 115 847 116 851 117 873 119 787 122 791 123 808 124 794 125 788 129 719 141 682 142 669 144 644 
8264 -0.074045 0.314540 2.773607 99 153 185 0 3 1906 10 1840 11 1703 13 1769 14 1727 16 1430 18 1515 24 1804 27 1762 28 1732 33 1536 34 1540 37 1443 38 1420 39 1422 51 1166 59 1314 61 1301 62 1250 63 1250 64 1237 68 1191 69 1204 71 1192 72 1140 73 1131 91 925 94 948 95 914 98 851 124 795 126 767 127 775 128 761 145 666 149 586 151 588 153 555 154 575 160 512 
8266 -0.057900 0.272493 2.803506 95 152 186 0 5 2052 10 1841 11 1704 13 1770 17 1356 19 1675 22 1820 24 1805 28 1733 29 1751 30 1704 31 1668 33 1537 34 1541 35 1438 37 1444 40 1468 41 1450 42 1480 43 1438 45 1364 53 1324 60 1300 61 1302 65 1221 77 907 79 972 81 998 82 1015 85 978 87 1021 95 915 98 852 100 865 101 932 102 913 103 913 104 857 106 874 127 776 128 762 130 745 134 699 138 668 139 679 140 672 142 670 143 617 144 645 145 667 146 617 147 618 154 576 
8268 -0.047855 0.369431 2.754023 113 170 204 0 9 1916 10 1842 11 1705 12 1701 22 1821 23 1862 32 1606 35 1439 43 1439 44 1392 45 1365 46 1214 47 1093 48 1064 49 906 50 920 51 1167 52 1284 53 1325 55 1281 56 1231 68 1192 70 1183 74 1050 77 908 78 940 89 939 90 925 93 919 100 866 102 914 110 841 114 818 115 848 118 822 119 788 121 741 130 746 131 714 132 716 136 683 137 655 138 669 139 680 141 683 142 671 143 618 144 646 145 668 147 619 150 580 151 589 158 528 159 544 162 502 
8269 -0.043465 -0.297406 3.895223 45 107 140 0 10 1843 11 1706 12 1702 13 1771 
8271 -0.004452 0.322445 2.787443 40 96 126 0 2 1714 3 1907 4 2090 5 2053 6 2011 7 2075 8 1999 9 1917 10 1844 11 1707 13 1772 18 1516 19 1676 20 1751 21 1801 26 1769 28 1734 29 1752 30 1705 31 1669 32 1607 33 1538 34 1542 36 1392 37 1445 38 1421 39 1423 40 1469 41 1451 60 1301 64 1238 67 1204 80 975 82 1016 83 945 84 926 85 979 88 1010 115 849 119 789 120 778 123 809 127 777 131 715 146 618 147 620 148 647 149 587 152 557 153 556 154 577 
8277 0.054107 0.343910 2.807550 25 73 110 0 3 1908 10 1845 11 1708 13 1773 21 1802 31 1670 32 1608 34 1543 59 1315 60 1302 88 1011 
8290 0.158085 0.288490 2.902263 97 152 180 0 10 1846 11 1709 144 647 168 358 
8292 0.187319 0.387148 2.812540 58 114 146 0 10 1847 11 1710 65 1222 82 1017 84 927 95 916 98 853 99 834 116 852 130 747 134 700 136 684 140 673 141 684 150 581 151 590 152 558 153 557 154 578 158 529 159 545 160 513 164 446 165 411 174 355 
8295 0.368096 0.308222 2.929681 108 170 202 0 10 1848 11 1711 12 1703 13 1774 15 1578 25 1851 28 1735 44 1393 100 867 146 619 
8296 0.368573 0.308711 2.933759 108 170 202 0 10 1849 11 1712 12 1704 13 1775 15 1579 44 1394 92 930 100 868 146 620 
8297 0.375899 0.345086 2.898272 48 101 140 0 10 1850 11 1713 17 1357 20 1752 21 1803 22 1822 23 1863 26 1770 27 1763 28 1736 29 1753 30 1706 31 1671 32 1609 33 1539 34 1544 35 1440 36 1393 37 1446 38 1422 39 1424 40 1470 41 1452 42 1481 43 1440 44 1395 45 1366 46 1215 47 1094 51 1168 53 1326 57 1257 58 1301 60 1303 61 1303 62 1251 63 1251 65 1223 66 1199 67 1205 69 1205 70 1184 74 1051 76 959 80 976 81 999 82 1018 84 928 85 980 90 926 92 931 94 949 105 849 107 813 108 859 110 842 111 853 112 861 118 823 119 790 120 779 121 742 124 796 125 789 127 778 128 763 129 720 130 748 132 717 133 734 134 701 135 691 136 685 137 656 138 670 139 681 140 674 141 685 143 619 144 648 145 669 146 621 147 621 148 648 149 588 150 582 152 559 153 558 154 579 157 553 158 530 160 514 163 490 164 447 165 412 166 412 167 406 168 359 169 367 170 350 171 337 172 357 174 356 175 331 176 332 181 287 184 276 185 270 204 117 
8298 0.476028 0.029325 3.417264 103 169 204 0 10 1851 11 1714 20 1753 22 1823 23 1864 24 1806 
8299 0.448727 0.405161 2.822211 68 133 164 0 6 2012 10 1852 11 1715 12 1705 15 1580 17 1358 19 1677 23 1865 24 1807 25 1852 26 1771 28 1737 29 1754 30 1707 39 1425 40 1471 41 1453 42 1482 43 1441 56 1232 58 1302 59 1316 62 1252 63 1252 67 1206 68 1193 72 1141 76 960 77 909 78 941 79 973 80 977 81 1000 82 1019 85 981 86 1015 89 940 90 927 94 950 96 885 97 903 100 869 101 933 102 915 103 914 104 858 105 850 106 875 107 814 108 860 109 875 114 819 115 850 116 853 117 874 119 791 120 780 122 792 123 810 124 797 125 790 126 768 128 764 130 749 134 702 135 692 136 686 138 671 139 682 143 620 146 622 149 589 151 591 152 560 153 559 156 536 160 515 161 508 162 503 163 491 164 448 165 413 166 413 168 360 169 368 170 351 171 338 173 337 174 357 177 307 178 316 180 306 182 274 186 248 193 185 194 184 195 180 197 161 199 170 200 167 202 144 220 72 
8300 0.589602 0.263214 2.955784 96 161 196 0 10 1853 11 1716 15 1581 23 1866 24 1808 112 862 113 796 114 820 115 851 116 854 117 875 118 824 133 735 134 703 135 693 136 687 138 672 139 683 141 686 144 649 155 559 161 509 165 414 177 308 181 288 
8304 -1.244845 -0.606904 3.394992 29 90 130 0 10 1854 12 1706 15 1582 21 1804 25 1853 27 1764 37 1447 
8306 -0.644773 0.020946 2.901212 93 153 186 0 10 1855 12 1707 21 1805 41 1454 44 1396 
8309 -0.423737 0.387494 2.644367 73 133 166 0 10 1856 12 1708 17 1359 21 1806 27 1765 36 1394 42 1483 44 1397 45 1367 46 1216 48 1065 50 921 60 1304 70 1185 74 1052 80 978 83 946 87 1022 89 941 
8310 -0.477088 0.099206 2.961668 85 150 181 0 10 1857 12 1709 20 1754 22 1824 24 1809 25 1854 
8311 -0.392447 0.242656 2.769929 89 149 184 0 7 2076 8 2000 10 1858 12 1710 21 1807 24 1810 25 1855 26 1772 27 1766 28 1738 29 1755 30 1708 31 1672 32 1610 33 1540 34 1545 55 1282 86 1016 
8312 -0.358056 0.267132 2.791405 91 151 184 0 3 1909 5 2054 7 2077 8 2001 9 1918 10 1859 11 1717 12 1711 19 1678 20 1755 21 1808 22 1825 23 1867 24 1811 26 1773 27 1767 54 1277 60 1305 61 1304 63 1253 66 1200 67 1207 
8313 -0.326155 0.418627 2.620699 96 165 197 0 10 1860 12 1712 13 1776 20 1756 22 1826 23 1868 25 1856 29 1756 37 1448 61 1305 80 979 85 982 105 851 
8314 -0.331183 0.216049 2.831772 100 165 193 0 10 1861 12 1713 13 1777 14 1728 16 1431 17 1360 22 1827 25 1857 28 1739 29 1757 32 1611 35 1441 36 1395 37 1449 59 1317 61 1306 62 1253 67 1208 82 1020 85 983 88 1012 97 904 103 915 108 861 
8317 -0.170529 0.330416 2.760884 39 89 125 0 10 1862 12 1714 15 1583 21 1809 27 1768 28 1740 31 1673 33 1541 53 1327 65 1224 
8319 -0.103113 -0.251303 3.290397 124 186 217 0 10 1863 12 1715 13 1778 
8320 -0.160960 -0.364550 4.322127 124 186 217 0 10 1864 12 1716 13 1779 14 1729 15 1584 
8322 0.021554 0.391599 2.750614 107 158 191 0 2 1715 4 2091 5 2055 6 2013 7 2078 8 2002 10 1865 12 1717 13 1780 14 1730 15 1585 16 1432 17 1361 18 1517 19 1679 20 1757 21 1810 22 1828 23 1869 24 1812 25 1858 26 1774 27 1769 28 1741 29 1758 30 1709 31 1674 33 1542 34 1546 36 1396 39 1426 40 1472 42 1484 43 1442 44 1398 45 1368 48 1066 49 907 50 922 51 1169 52 1285 53 1328 54 1278 55 1283 56 1233 59 1318 60 1306 61 1307 62 1254 64 1239 66 1201 67 1209 68 1194 69 1206 71 1193 72 1142 73 1132 74 1053 75 1007 79 974 80 980 81 1001 82 1021 83 947 86 1017 89 942 90 928 91 926 92 932 95 917 99 835 100 870 101 934 104 859 105 852 106 876 107 815 109 876 110 843 111 854 112 863 113 797 115 852 116 855 117 876 118 825 119 792 120 781 121 743 122 793 124 798 126 769 127 779 128 765 129 721 131 716 132 718 133 736 134 704 136 688 139 684 140 675 141 687 142 672 143 621 145 670 151 592 152 561 153 560 155 560 157 554 158 531 160 516 161 510 162 504 164 449 166 414 168 361 169 369 170 352 172 358 175 332 176 333 178 317 179 322 
8323 0.348820 -0.156612 3.260923 47 112 145 0 7 2079 10 1866 12 1718 32 1612 35 1442 36 1397 38 1423 58 1303 64 1240 
8324 -0.843841 0.328437 2.424065 40 97 135 0 10 1867 13 1781 18 1518 
8325 -1.363506 -0.070372 3.302203 35 97 133 0 6 2014 10 1868 13 1782 18 1519 22 1829 23 1870 
8328 -0.850071 -0.030685 2.936492 27 80 117 0 10 1869 13 1783 25 1859 37 1450 
8329 -0.545961 0.212500 2.796902 97 162 193 0 10 1870 13 1784 14 1731 18 1520 19 1680 23 1871 25 1860 30 1710 31 1675 32 1613 37 1451 40 1473 59 1319 
8332 -0.060433 0.253712 2.807187 39 94 129 0 6 2015 10 1871 13 1785 22 1830 24 1813 25 1861 26 1775 31 1676 
8334 0.007818 0.448978 2.711352 94 151 185 0 10 1872 13 1786 19 1681 23 1872 39 1427 95 918 101 935 138 673 155 561 157 555 166 415 168 362 172 359 
8336 0.102706 0.331026 2.810133 48 102 134 0 3 1910 10 1873 13 1787 14 1732 16 1433 19 1682 20 1758 24 1814 25 1862 27 1770 28 1742 36 1398 37 1452 72 1143 88 1013 89 943 
8338 -0.612796 -0.150916 3.190546 46 96 136 0 1 1667 2 1716 3 1911 4 2092 9 1919 10 1874 13 1788 14 1733 15 1586 17 1362 19 1683 20 1759 23 1873 24 1815 25 1863 28 1743 30 1711 31 1677 32 1614 33 1543 35 1443 37 1453 39 1428 40 1474 46 1217 50 923 51 1170 52 1286 53 1329 55 1284 58 1304 60 1307 61 1308 62 1255 63 1254 68 1195 
8340 0.023161 0.274065 2.927377 98 154 185 0 10 1875 14 1734 15 1587 16 1434 17 1363 20 1760 22 1831 29 1759 38 1424 44 1399 45 1369 46 1218 47 1095 48 1067 49 908 50 924 
8341 0.100454 0.382498 2.782567 27 83 113 0 1 1668 3 1912 4 2093 5 2056 6 2016 8 2003 9 1920 10 1876 11 1718 12 1719 13 1789 14 1735 15 1588 16 1435 17 1364 18 1521 20 1761 21 1811 23 1874 24 1816 25 1864 26 1776 27 1771 28 1744 29 1760 30 1712 31 1678 32 1615 33 1544 35 1444 36 1399 37 1454 38 1425 39 1429 41 1455 43 1443 44 1400 45 1370 47 1096 48 1068 49 909 50 925 53 1330 54 1279 55 1285 57 1258 58 1305 59 1320 60 1308 61 1309 62 1256 64 1241 65 1225 66 1202 67 1210 68 1196 69 1207 70 1186 71 1194 72 1144 73 1133 74 1054 75 1008 76 961 77 910 78 942 80 981 81 1002 82 1022 83 948 84 929 85 984 86 1018 87 1023 90 929 92 933 93 920 94 951 95 919 96 886 97 905 98 854 99 836 100 871 101 936 102 916 103 916 104 860 105 853 106 877 108 862 109 877 110 844 113 798 114 821 115 853 116 856 118 826 119 793 120 782 122 794 123 811 124 799 125 791 126 770 127 780 129 722 130 750 131 717 132 719 133 737 134 705 137 657 138 674 139 685 140 676 141 688 142 673 143 622 144 650 145 671 146 623 147 622 149 590 150 583 151 593 152 562 153 561 155 562 156 537 157 556 158 532 160 517 161 511 162 505 163 492 164 450 165 415 166 416 167 407 168 363 169 370 170 353 171 339 172 360 173 338 174 358 176 334 178 318 179 323 180 307 181 289 182 275 184 277 188 222 189 223 190 222 191 206 192 198 193 186 194 185 
8342 0.317410 0.191476 2.946158 38 87 126 0 5 2057 6 2017 7 2080 10 1877 14 1736 15 1589 16 1436 17 1365 19 1684 29 1761 31 1679 33 1545 34 1547 35 1445 36 1400 84 930 86 1019 88 1014 96 887 97 906 101 937 111 855 123 812 124 800 125 792 127 781 128 766 132 720 134 706 135 694 136 689 145 672 148 649 149 591 152 563 153 562 155 563 156 538 157 557 160 518 165 416 171 340 178 319 183 287 185 271 201 143 
8345 0.585454 0.293075 2.966757 61 116 155 0 10 1878 14 1737 15 1590 42 1485 44 1401 
8348 -0.844341 0.475483 2.382832 62 124 156 0 10 1879 15 1591 17 1366 
