# 3D point list with one line of data per point:
#   POINT3D_ID, X, Y, Z, R, G, B, ERROR, TRACK[] as (IMAGE_ID, POINT2D_IDX)
# Number of points: 105, mean track length: 
4955 -0.025001 0.033988 1.052771 105 162 195 0 1 1328 4 1433 5 1357 7 1304 8 1295 9 1279 10 1289 19 1212 24 1234 25 1263 26 1233 27 1241 31 1205 32 1201 34 1168 36 1070 38 1110 40 1087 42 1117 52 985 54 988 57 970 59 1002 65 923 66 938 67 929 68 916 70 902 71 898 72 874 73 873 80 774 86 784 89 749 90 731 96 700 98 677 101 712 108 671 111 655 112 665 117 670 118 632 121 577 125 598 126 582 127 588 137 500 139 520 141 530 
4957 -0.017331 0.029338 1.042167 53 109 139 0 3 1522 4 1434 5 1358 7 1305 8 1296 9 1280 10 1290 13 1244 18 1149 19 1213 22 1285 23 1310 24 1235 25 1264 26 1234 28 1226 
4961 -0.026121 0.025617 1.053575 86 144 173 0 4 1435 5 1359 6 1302 7 1306 9 1281 10 1291 12 1241 13 1245 14 1266 20 1226 23 1311 24 1236 26 1235 27 1242 30 1221 32 1202 33 1170 35 1120 36 1071 38 1111 39 1082 55 987 63 961 65 924 69 927 70 903 73 874 136 516 137 501 
4962 -0.020915 0.031760 1.051915 47 110 134 0 1 1329 4 1436 5 1360 6 1303 10 1292 11 1248 12 1242 13 1246 14 1267 15 1186 16 1113 17 1080 20 1227 21 1266 22 1286 23 1312 25 1265 26 1236 27 1243 28 1227 31 1206 32 1203 34 1169 35 1121 36 1072 40 1088 43 1106 46 967 53 1012 55 988 58 984 60 978 61 997 71 899 74 838 85 769 90 732 92 730 97 702 98 678 107 650 109 670 126 583 136 517 
4963 -0.018466 0.034651 1.047880 37 95 124 0 4 1437 5 1361 7 1307 9 1282 14 1268 20 1228 21 1267 22 1287 23 1313 25 1266 26 1237 27 1244 29 1232 52 986 53 1013 54 989 55 989 58 985 67 930 109 671 
4966 -0.022721 0.020219 1.055075 107 163 195 0 1 1330 4 1438 5 1362 6 1304 7 1308 8 1297 9 1283 10 1293 11 1249 12 1243 13 1247 14 1269 15 1187 16 1114 17 1081 18 1150 19 1214 20 1229 21 1268 22 1288 23 1314 24 1237 25 1267 26 1238 27 1245 28 1228 29 1233 30 1222 31 1207 32 1204 33 1171 34 1170 35 1122 36 1073 37 1100 38 1112 39 1083 40 1089 41 1092 42 1118 43 1107 44 1081 45 1062 46 968 47 878 48 868 51 914 52 987 53 1014 54 990 55 990 56 929 57 971 58 986 59 1003 60 979 61 998 62 966 63 962 64 918 65 925 67 931 68 917 69 928 70 904 72 875 73 875 74 839 75 816 76 773 77 725 78 754 79 773 80 775 81 787 82 788 83 759 84 734 85 770 88 779 89 750 90 733 91 729 93 733 94 730 95 710 96 701 97 703 99 662 100 674 101 713 102 706 103 697 104 678 105 666 106 675 107 651 108 672 109 672 110 655 111 656 114 641 115 654 116 634 117 671 118 633 119 615 120 599 121 578 122 607 124 606 125 599 126 584 127 589 128 582 129 549 130 567 132 553 133 549 136 518 137 502 140 502 143 471 144 510 145 503 146 475 148 485 149 439 
4967 -0.030507 0.033993 1.058671 72 134 159 0 4 1439 5 1363 6 1305 7 1309 8 1298 12 1244 13 1248 14 1270 19 1215 20 1230 21 1269 22 1289 23 1315 24 1238 25 1268 34 1171 36 1074 39 1084 41 1093 54 991 55 991 56 930 59 1004 60 980 61 999 64 919 65 926 69 929 70 905 72 876 91 730 92 731 93 734 94 731 96 702 97 704 99 663 109 673 110 656 112 666 115 655 116 635 117 672 120 600 126 585 128 583 129 550 130 568 141 531 147 467 148 486 
4971 -0.018022 0.024262 1.052405 127 183 215 0 1 1331 2 1396 4 1440 5 1364 6 1306 7 1310 13 1249 14 1271 16 1115 18 1151 19 1216 21 1270 22 1290 23 1316 24 1239 25 1269 28 1229 31 1208 34 1172 35 1123 37 1101 43 1108 45 1063 53 1015 54 992 55 992 56 931 57 972 59 1005 61 1000 62 967 64 920 67 932 68 918 76 774 77 726 78 755 80 776 81 788 82 789 85 771 87 800 88 780 90 734 92 732 94 732 95 711 98 679 99 664 100 675 101 714 104 679 105 667 106 676 107 652 108 673 109 674 111 657 113 631 115 656 116 636 117 673 118 634 119 616 120 601 121 579 122 608 124 607 126 586 130 569 131 554 132 554 133 550 134 534 135 536 137 503 138 516 139 521 140 503 141 532 142 498 143 472 144 511 145 504 146 476 147 468 148 487 149 440 152 438 
4972 -0.010377 0.015843 1.042609 98 152 184 0 4 1441 5 1365 6 1307 10 1294 11 1250 12 1245 30 1223 45 1064 54 993 55 993 58 987 
4973 -0.014382 0.033957 1.046538 88 143 170 0 4 1442 5 1366 7 1311 8 1299 13 1250 19 1217 21 1271 23 1317 24 1240 25 1270 26 1239 34 1173 59 1006 61 1001 94 733 123 616 
4974 -0.017772 0.044556 1.052369 129 190 220 0 3 1523 4 1443 5 1367 6 1308 7 1312 8 1300 9 1284 10 1295 11 1251 12 1246 13 1251 14 1272 15 1188 19 1218 20 1231 21 1272 22 1291 23 1318 24 1241 25 1271 26 1240 28 1230 29 1234 30 1224 31 1209 32 1205 38 1113 39 1085 41 1094 42 1119 43 1109 45 1065 47 879 48 869 49 740 51 915 54 994 55 994 56 932 57 973 58 988 59 1007 63 963 64 921 65 927 66 939 67 933 68 919 69 930 70 906 71 900 72 877 73 876 76 775 81 789 85 772 86 785 88 781 89 751 90 735 91 731 92 733 93 735 94 734 97 705 100 676 102 707 103 698 104 680 106 677 114 642 115 657 116 637 117 674 118 635 122 609 124 608 134 535 135 537 142 499 144 512 145 505 146 477 149 441 150 448 151 441 154 427 155 427 156 398 158 404 159 414 161 373 
4975 -0.019044 0.051610 1.052486 101 159 190 0 1 1332 4 1444 5 1368 6 1309 7 1313 8 1301 9 1285 17 1082 18 1152 19 1219 20 1232 22 1292 23 1319 24 1242 25 1272 26 1241 28 1231 30 1225 31 1210 32 1206 33 1172 35 1124 37 1102 38 1114 39 1086 40 1090 41 1095 42 1120 55 995 56 933 58 989 60 981 67 934 68 920 69 931 70 907 73 877 79 774 80 777 82 790 84 735 85 773 87 801 89 752 90 736 91 732 92 734 95 712 101 715 103 699 105 668 106 678 110 657 111 658 118 636 120 602 125 600 127 590 128 584 132 555 134 536 135 538 138 517 139 522 144 513 146 478 147 469 148 488 149 442 150 449 151 442 152 439 154 428 155 428 156 399 159 415 160 388 
4976 -0.020410 0.024734 1.056928 72 134 160 0 4 1445 5 1369 6 1310 7 1314 9 1286 11 1252 13 1252 15 1189 17 1083 20 1233 23 1320 24 1243 25 1273 26 1242 27 1246 28 1232 29 1235 30 1226 31 1211 35 1125 42 1121 60 982 82 791 
4980 -0.018772 0.028007 1.053043 47 105 134 0 2 1397 3 1524 4 1446 5 1370 6 1311 7 1315 8 1302 9 1287 10 1296 11 1253 12 1247 13 1253 15 1190 18 1153 19 1220 20 1234 21 1273 22 1293 23 1321 24 1244 25 1274 26 1243 27 1247 28 1233 29 1236 30 1227 31 1212 32 1207 33 1173 34 1174 35 1126 37 1103 40 1091 42 1122 45 1066 46 969 47 880 50 762 51 916 54 995 56 934 59 1008 60 983 68 921 69 932 72 878 74 840 86 786 88 782 93 736 108 674 109 675 112 667 117 675 126 587 148 489 
4981 -0.018146 0.023556 1.055080 109 172 201 0 4 1447 5 1371 6 1312 8 1303 9 1288 19 1221 20 1235 21 1274 23 1322 24 1245 27 1248 28 1234 30 1228 31 1213 37 1104 43 1110 68 922 71 901 72 879 75 817 87 802 98 680 101 716 109 676 117 676 131 555 132 556 133 551 143 473 150 450 151 443 152 440 
4982 -0.020394 0.045073 1.054827 125 187 216 0 4 1448 5 1372 6 1313 7 1316 8 1304 9 1289 12 1248 13 1254 18 1154 19 1222 20 1236 21 1275 23 1323 26 1244 28 1235 29 1237 31 1214 34 1175 36 1075 43 1111 52 988 53 1016 54 996 55 996 56 935 57 974 58 990 59 1009 60 984 62 968 63 964 67 935 68 923 69 933 71 902 72 880 73 878 74 841 75 818 76 776 77 727 78 756 84 736 88 783 90 737 92 735 98 681 102 708 103 700 107 653 109 677 110 658 116 638 117 677 134 537 140 504 141 533 142 500 144 514 152 441 155 429 156 400 157 407 
4986 -0.017538 0.039758 1.054120 134 183 217 0 4 1449 5 1373 22 1294 23 1324 25 1275 26 1245 27 1249 28 1236 30 1229 53 1017 59 1010 60 985 81 790 90 738 92 736 96 703 97 706 100 677 105 669 109 678 111 659 122 610 126 588 127 591 128 585 132 557 136 519 144 515 147 470 150 451 151 444 152 442 153 430 156 401 157 408 158 405 163 369 
4987 -0.018104 0.040668 1.053552 124 180 210 0 4 1450 5 1374 6 1314 8 1305 9 1290 10 1297 11 1254 12 1249 13 1255 14 1273 15 1191 16 1116 17 1084 18 1155 19 1223 20 1237 21 1276 22 1295 23 1325 24 1246 25 1276 26 1246 27 1250 28 1237 29 1238 30 1230 32 1208 33 1174 34 1176 35 1127 36 1076 37 1105 38 1115 39 1087 40 1092 41 1096 42 1123 43 1112 45 1067 46 970 47 881 48 870 49 741 50 763 51 917 52 989 53 1018 54 997 55 997 56 936 57 975 58 991 59 1011 60 986 61 1002 62 969 63 965 64 922 65 928 66 940 67 936 68 924 69 934 70 908 71 903 72 881 73 879 74 842 75 819 76 777 78 757 79 775 80 778 82 792 83 760 85 774 86 787 87 803 88 784 89 753 90 739 91 733 92 737 93 737 94 735 95 713 96 704 97 707 98 682 99 665 102 709 103 701 104 681 106 679 107 654 108 675 109 679 110 659 111 660 112 668 113 632 114 643 115 658 116 639 117 678 118 637 119 617 120 603 122 611 123 617 124 609 125 601 126 589 127 592 128 586 129 551 130 570 131 556 132 558 133 552 134 538 135 539 136 520 137 504 138 518 139 523 140 505 141 534 142 501 143 474 144 516 145 506 146 479 148 490 149 443 150 452 151 445 152 443 153 431 154 429 155 430 157 409 158 406 159 416 160 389 161 374 162 382 163 370 164 340 
4989 -0.019639 0.048643 1.054972 114 170 207 0 1 1333 2 1398 3 1525 4 1451 5 1375 7 1317 8 1306 9 1291 10 1298 11 1255 12 1250 13 1256 14 1274 16 1117 17 1085 18 1156 19 1224 20 1238 21 1277 23 1326 24 1247 25 1277 26 1247 27 1251 28 1238 29 1239 30 1231 31 1215 32 1209 33 1175 34 1177 35 1128 36 1077 37 1106 38 1116 39 1088 40 1093 41 1097 42 1124 43 1113 44 1082 45 1068 46 971 47 882 48 871 49 742 50 764 52 990 53 1019 54 998 55 998 56 937 57 976 58 992 59 1012 60 987 61 1003 62 970 63 966 64 923 65 929 66 941 67 937 68 925 70 909 71 904 72 882 75 820 76 778 77 728 78 758 79 776 80 779 81 791 82 793 83 761 84 737 85 775 86 788 87 804 88 785 90 740 91 734 92 738 93 738 97 708 98 683 99 666 100 678 101 717 102 710 103 702 105 670 106 680 107 655 108 676 109 680 111 661 112 669 113 633 114 644 116 640 117 679 118 638 119 618 120 604 121 580 122 612 123 618 124 610 126 590 127 593 129 552 130 571 131 557 132 559 133 553 134 539 135 540 137 505 138 519 139 524 141 535 143 475 147 471 148 491 149 444 151 446 155 431 156 402 157 410 158 407 159 417 160 390 161 375 162 383 163 371 166 317 
4991 -0.011906 0.026363 1.048193 47 102 137 0 4 1452 5 1376 6 1315 8 1307 9 1292 11 1256 12 1251 18 1157 21 1278 22 1296 24 1248 25 1278 26 1248 31 1216 42 1125 44 1083 45 1069 49 743 50 765 57 977 62 971 63 967 69 935 70 910 
4993 -0.014147 0.031208 1.051270 91 143 174 0 4 1453 5 1377 6 1316 19 1225 20 1239 21 1279 24 1249 25 1279 28 1239 30 1232 31 1217 46 972 47 883 48 872 49 744 50 766 51 918 52 991 58 993 59 1013 60 988 65 930 72 883 73 880 74 843 75 821 110 660 113 634 114 645 124 611 127 594 129 553 
4997 -0.015283 0.034972 1.054837 117 169 200 0 4 1454 5 1378 17 1086 18 1158 19 1226 27 1252 36 1078 37 1107 39 1089 44 1084 46 973 49 745 80 780 86 789 88 786 92 739 97 709 99 667 102 711 111 662 112 670 115 659 124 612 126 591 131 558 145 507 148 492 149 445 151 447 152 444 160 391 163 372 
4999 -0.014251 0.035187 1.052791 33 92 116 0 4 1455 5 1379 6 1317 14 1275 28 1240 30 1233 31 1218 61 1004 63 968 143 476 146 480 
5002 -0.010538 0.031034 1.052423 92 146 178 0 4 1456 5 1380 9 1293 13 1257 21 1280 37 1108 39 1090 69 936 101 718 102 712 116 641 117 680 118 639 123 619 124 613 125 602 138 520 139 525 153 432 
5003 -0.012518 0.026730 1.055023 54 108 138 0 1 1334 2 1399 4 1457 5 1381 6 1318 8 1308 9 1294 10 1299 11 1257 14 1276 16 1118 17 1087 18 1159 19 1227 20 1240 22 1297 23 1327 24 1250 25 1280 26 1249 27 1253 28 1241 29 1240 30 1234 31 1219 33 1176 34 1178 36 1079 37 1109 39 1091 41 1098 42 1126 43 1114 44 1085 45 1070 46 974 47 884 48 873 49 746 50 767 51 919 52 992 53 1020 54 999 56 938 57 978 58 994 59 1014 60 989 62 972 63 969 64 924 65 931 66 942 67 938 68 926 69 937 70 911 71 905 73 881 74 844 75 822 77 729 79 777 80 781 82 794 83 762 84 738 85 776 86 790 87 805 88 787 89 754 90 741 91 735 92 740 95 714 96 705 97 710 98 684 99 668 100 679 102 713 103 703 104 682 106 681 107 656 108 677 110 661 113 635 115 660 116 642 117 681 118 640 120 605 121 581 122 613 123 620 124 614 125 603 126 592 127 595 128 587 129 554 130 572 131 559 132 560 133 554 134 540 138 521 140 506 141 536 142 502 143 477 144 517 145 508 147 472 148 493 149 446 151 448 153 433 154 430 156 403 157 411 159 418 160 392 161 376 162 384 163 373 165 318 166 318 167 304 
5004 -0.013926 0.026787 1.055849 54 108 138 0 1 1335 4 1458 5 1382 8 1309 9 1295 10 1300 11 1258 14 1277 17 1088 18 1160 19 1228 20 1241 21 1281 22 1298 23 1328 25 1281 26 1250 27 1254 28 1242 29 1241 30 1235 31 1220 33 1177 34 1179 35 1129 36 1080 37 1110 39 1092 40 1094 42 1127 44 1086 45 1071 47 885 49 747 51 920 52 993 53 1021 54 1000 55 999 56 939 60 990 65 932 66 943 67 939 70 912 71 906 72 884 73 882 74 845 75 823 85 777 86 791 88 788 89 755 91 736 92 741 95 715 96 706 98 685 99 669 100 680 106 682 110 662 120 606 122 614 123 621 124 615 125 604 127 596 128 588 129 555 130 573 132 561 134 541 139 526 140 507 141 537 142 503 143 478 144 518 153 434 156 404 159 419 160 393 161 377 165 319 167 305 
5005 -0.009118 0.031911 1.042654 77 130 165 0 3 1526 4 1459 5 1383 6 1319 13 1258 19 1229 21 1282 28 1243 31 1221 32 1210 45 1072 47 886 51 921 77 730 
5008 -0.009686 0.024738 1.045263 70 130 163 0 4 1460 5 1384 11 1259 15 1192 44 1087 45 1073 46 975 47 887 50 768 52 994 53 1022 55 1000 60 991 62 973 63 970 69 938 75 824 77 731 86 792 105 671 107 657 109 681 111 663 
5009 -0.007035 0.028413 1.047793 70 130 163 0 2 1400 4 1461 5 1385 9 1296 10 1301 11 1260 15 1193 17 1089 19 1230 20 1242 21 1283 22 1299 23 1329 25 1282 26 1251 27 1255 28 1244 44 1088 45 1074 46 976 47 888 50 769 53 1023 62 974 63 971 69 939 77 732 78 759 89 756 96 707 103 704 105 672 107 658 109 682 111 664 122 615 154 431 
5010 -0.003325 0.041100 1.043059 45 100 135 0 1 1336 2 1401 3 1527 4 1462 5 1386 6 1320 8 1310 9 1297 10 1302 11 1261 12 1252 13 1259 14 1278 15 1194 16 1119 17 1090 18 1161 19 1231 21 1284 22 1300 23 1330 24 1251 25 1283 26 1252 27 1256 28 1245 29 1242 31 1222 33 1178 34 1180 35 1130 42 1128 45 1075 55 1001 56 940 57 979 58 995 64 925 65 933 66 944 67 940 68 927 70 913 72 885 73 883 75 825 84 739 89 757 92 742 94 736 
5011 -0.000864 0.021647 1.032090 27 84 118 0 1 1337 3 1528 4 1463 5 1387 6 1321 19 1232 20 1243 25 1284 27 1257 44 1089 45 1076 
5013 -0.013997 0.025002 1.057112 112 168 200 0 1 1338 2 1402 4 1464 5 1388 6 1322 7 1318 8 1311 9 1298 10 1303 12 1253 14 1279 15 1195 16 1120 17 1091 18 1162 21 1285 26 1253 27 1258 28 1246 29 1243 30 1236 31 1223 32 1211 33 1179 34 1181 35 1131 38 1117 39 1093 40 1095 42 1129 43 1115 44 1090 45 1077 46 977 47 889 48 874 49 748 50 770 51 922 52 995 53 1024 54 1001 55 1002 56 941 57 980 58 996 59 1015 60 992 61 1005 62 975 64 926 66 945 67 941 68 928 70 914 71 907 72 886 73 884 74 846 75 826 76 779 78 760 79 778 80 782 81 792 84 740 85 778 86 793 89 758 93 739 95 716 96 708 97 711 98 686 100 681 106 683 107 659 108 678 110 663 117 682 119 619 120 607 123 622 124 616 125 605 129 556 130 574 131 560 133 555 134 542 138 522 139 527 142 504 144 519 148 494 149 447 150 453 151 449 154 432 159 420 160 394 161 378 162 385 
5024 -0.005067 0.027960 1.047935 120 176 210 0 4 1465 5 1389 6 1323 7 1319 9 1299 13 1260 14 1280 20 1244 21 1286 22 1301 23 1331 24 1252 25 1285 26 1254 29 1244 41 1099 59 1016 60 993 61 1006 63 972 64 927 65 934 67 942 68 929 70 915 71 908 72 887 73 885 116 643 125 606 127 597 131 561 162 386 
5029 -0.005474 0.037154 1.052876 93 148 180 0 4 1466 5 1390 8 1312 11 1262 12 1254 30 1237 33 1180 40 1096 58 997 63 973 66 946 71 909 72 888 73 886 100 682 101 719 103 705 104 683 105 673 116 644 133 556 142 505 143 479 145 509 160 395 162 387 163 374 180 232 
5030 -0.008013 0.017186 1.057698 47 102 141 0 4 1467 5 1391 8 1313 11 1263 12 1255 13 1261 19 1233 20 1245 22 1302 26 1255 31 1224 32 1212 38 1118 39 1094 44 1091 47 890 52 996 54 1002 55 1003 60 994 61 1007 63 974 64 928 69 940 71 910 72 889 75 827 76 780 77 733 78 761 79 779 80 783 81 793 82 795 83 763 84 741 85 779 86 794 89 759 90 742 91 737 93 740 94 737 95 717 96 709 97 712 98 687 99 670 102 714 105 674 106 684 108 679 109 683 110 664 111 665 112 671 113 636 115 661 116 645 117 683 118 641 119 620 120 608 121 582 122 616 123 623 124 617 125 607 128 589 129 557 130 575 131 562 132 562 133 557 134 543 135 541 136 521 137 506 138 523 142 506 143 480 145 510 146 481 147 473 148 495 149 448 151 450 152 445 153 435 154 433 155 432 157 412 158 408 159 421 161 379 162 388 163 375 165 320 166 319 167 306 168 269 169 271 170 266 171 258 172 261 173 256 174 272 175 252 176 265 177 244 179 244 
5032 -0.007179 0.045624 1.054217 137 192 222 0 1 1339 2 1403 3 1529 4 1468 5 1392 7 1320 8 1314 9 1300 10 1304 12 1256 13 1262 14 1281 15 1196 16 1121 17 1092 18 1163 19 1234 20 1246 22 1303 23 1332 26 1256 27 1259 28 1247 29 1245 30 1238 31 1225 32 1213 33 1181 34 1182 35 1132 36 1081 37 1111 39 1095 40 1097 41 1100 42 1130 43 1116 44 1092 51 923 53 1025 54 1003 55 1004 56 942 57 981 58 998 60 995 62 976 63 975 65 935 66 947 68 930 69 941 71 911 72 890 73 887 74 847 75 828 77 734 78 762 79 780 80 784 81 794 82 796 83 764 84 742 85 780 86 795 87 806 88 789 89 760 90 743 91 738 92 743 93 741 94 738 95 718 96 710 97 713 98 688 99 671 100 683 101 720 102 715 104 684 105 675 106 685 107 660 108 680 109 684 110 665 111 666 112 672 114 646 115 662 116 646 117 684 119 621 120 609 121 583 122 617 123 624 124 618 125 608 126 593 127 598 128 590 129 558 130 576 131 563 132 563 133 558 134 544 135 542 136 522 137 507 138 524 139 528 141 538 142 507 143 481 144 520 145 511 146 482 147 474 148 496 149 449 150 454 151 451 152 446 153 436 154 434 155 433 156 405 157 413 158 409 159 422 160 396 162 389 163 376 164 341 165 321 166 320 167 307 168 270 169 272 170 267 171 259 172 262 173 257 174 273 175 253 176 266 177 245 178 233 179 245 182 219 183 222 
5033 -0.024237 0.039589 1.054778 111 171 194 0 1 1340 2 1404 3 1530 4 1469 5 1393 6 1324 7 1321 8 1315 9 1301 10 1305 11 1264 12 1257 13 1263 14 1282 15 1197 16 1122 17 1093 18 1164 19 1235 20 1247 21 1287 22 1304 23 1333 24 1253 25 1286 26 1257 27 1260 28 1248 29 1246 30 1239 31 1226 32 1214 33 1182 34 1183 35 1133 36 1082 37 1112 38 1119 39 1096 40 1098 41 1101 42 1131 43 1117 44 1093 45 1078 46 978 47 891 48 875 49 749 50 771 51 924 52 997 53 1026 54 1004 55 1005 56 943 57 982 58 999 59 1017 60 996 61 1008 62 977 63 976 64 929 65 936 66 948 67 943 68 931 69 942 70 916 71 912 72 891 73 888 74 848 76 781 77 735 78 763 79 781 80 785 81 795 82 797 83 765 84 743 85 781 86 796 87 807 88 790 89 761 90 744 91 739 92 744 93 742 94 739 95 719 96 711 97 714 98 689 99 672 100 684 101 721 102 716 103 706 104 685 105 676 106 686 107 661 108 681 109 685 110 666 111 667 112 673 113 637 114 647 115 663 116 647 117 685 118 642 119 622 120 610 121 584 122 618 123 625 124 619 125 609 126 594 127 599 128 591 129 559 130 577 131 564 132 564 133 559 134 545 135 543 136 523 137 508 138 525 139 529 140 508 141 539 142 508 143 482 144 521 145 512 146 483 147 475 148 497 149 450 150 455 151 452 152 447 154 435 170 268 
5040 -0.003563 0.048457 1.053494 47 101 131 0 1 1341 3 1531 4 1470 5 1394 6 1325 7 1322 11 1265 12 1258 13 1264 14 1283 15 1198 16 1123 17 1094 18 1165 20 1248 21 1288 22 1305 23 1334 24 1254 25 1287 26 1258 28 1249 29 1247 30 1240 31 1227 33 1183 34 1184 39 1097 40 1099 41 1102 52 998 53 1027 54 1005 57 983 58 1000 62 978 64 930 66 949 67 944 68 932 76 782 77 736 80 786 81 796 82 798 83 766 84 744 85 782 87 808 88 791 93 743 94 740 95 720 96 712 97 715 102 717 103 707 107 662 109 686 112 674 113 638 115 664 116 648 120 611 121 585 122 619 125 610 127 600 128 592 129 560 130 578 133 560 135 544 136 524 139 530 142 509 143 483 144 522 147 476 150 456 151 453 153 437 154 436 155 434 156 406 158 410 159 423 162 390 167 308 171 260 173 258 174 274 
5045 0.005056 0.030674 1.044141 88 145 175 0 2 1405 4 1471 5 1395 9 1302 10 1306 11 1266 12 1259 14 1284 15 1199 18 1166 19 1236 20 1249 21 1289 22 1306 25 1288 28 1250 29 1248 30 1241 31 1228 35 1134 37 1113 38 1120 39 1098 54 1006 55 1006 56 944 64 931 66 950 73 889 86 797 116 649 125 611 139 531 142 510 157 414 177 246 
5048 -0.001922 0.026872 1.056626 145 199 229 0 1 1342 2 1406 3 1532 4 1472 5 1396 6 1326 7 1323 9 1303 10 1307 11 1267 12 1260 13 1265 14 1285 15 1200 16 1124 17 1095 18 1167 19 1237 20 1250 21 1290 22 1307 23 1335 24 1255 25 1289 26 1259 27 1261 28 1251 29 1249 30 1242 31 1229 32 1215 33 1184 34 1185 35 1135 36 1083 37 1114 38 1121 39 1099 40 1100 41 1103 42 1132 43 1118 44 1094 45 1079 47 892 49 750 50 772 51 925 52 999 53 1028 54 1007 55 1007 56 945 57 984 58 1001 59 1018 60 997 61 1009 62 979 63 977 64 932 65 937 66 951 67 945 68 933 69 943 70 917 71 913 72 892 73 890 74 849 75 829 76 783 77 737 78 764 79 782 80 787 81 797 82 799 83 767 84 745 85 783 86 798 87 809 88 792 89 762 90 745 91 740 92 745 93 744 94 741 95 721 96 713 97 716 98 690 99 673 100 685 101 722 102 718 103 708 104 686 105 677 106 687 107 663 108 682 109 687 110 667 111 668 112 675 113 639 114 648 115 665 116 650 117 686 118 643 119 623 120 612 121 586 122 620 123 626 125 612 126 595 127 601 128 593 129 561 130 579 131 565 132 565 133 561 134 546 135 545 136 525 137 509 138 526 139 532 140 509 141 540 142 511 143 484 144 523 145 513 146 484 147 477 148 498 149 451 150 457 151 454 152 448 153 438 154 437 155 435 156 407 157 415 158 411 159 424 160 397 161 380 162 391 163 377 164 342 165 322 166 321 167 309 168 271 169 273 170 269 171 261 172 263 173 259 174 275 175 254 176 267 177 247 178 234 180 233 181 214 183 223 184 213 185 205 187 183 188 167 189 169 190 172 191 156 
5052 0.006484 0.008386 1.039852 42 98 134 0 4 1473 5 1397 7 1324 9 1304 10 1308 11 1268 13 1266 14 1286 18 1168 36 1084 46 979 87 810 91 741 115 666 117 687 
5057 -0.001399 0.039080 1.056346 23 81 110 0 4 1474 5 1398 6 1327 7 1325 9 1305 42 1133 59 1019 60 998 67 946 72 893 74 850 80 788 114 649 116 651 117 688 
5058 0.000969 0.035064 1.054666 33 90 122 0 4 1475 5 1399 19 1238 20 1251 22 1308 23 1336 24 1256 25 1290 26 1260 27 1262 28 1252 29 1250 30 1243 31 1230 32 1216 35 1136 36 1085 37 1115 40 1101 41 1104 42 1134 45 1080 46 980 52 1000 54 1008 55 1008 56 946 57 985 58 1002 62 980 63 978 64 933 65 938 66 952 67 947 69 944 70 918 72 894 77 738 80 789 81 798 82 800 83 768 84 746 85 784 88 793 94 742 95 722 99 674 101 723 103 709 112 676 113 640 118 644 130 580 137 510 141 541 144 524 145 514 147 478 157 416 158 412 159 425 
5072 0.007695 0.034504 1.052988 86 136 172 0 4 1476 5 1400 7 1326 8 1316 10 1309 22 1309 24 1257 25 1291 28 1253 37 1116 38 1122 39 1100 40 1102 42 1135 43 1119 46 981 53 1029 54 1009 55 1009 61 1010 63 979 82 801 92 746 110 668 123 627 130 581 145 515 147 479 152 449 153 439 156 408 176 268 
5073 0.009079 0.036263 1.051438 95 153 184 0 1 1343 2 1407 4 1477 5 1401 6 1328 7 1327 13 1267 15 1201 16 1125 17 1096 18 1169 19 1239 20 1252 23 1337 24 1258 25 1292 27 1263 30 1244 31 1231 32 1217 33 1185 35 1137 36 1086 37 1117 38 1123 40 1103 41 1105 43 1120 44 1095 45 1081 46 982 47 893 48 876 49 751 50 773 51 926 52 1001 53 1030 55 1010 56 947 57 986 58 1003 60 999 62 981 63 980 65 939 66 953 68 934 69 945 71 914 72 895 74 851 75 830 76 784 77 739 78 765 79 783 83 769 84 747 85 785 86 799 87 811 88 794 89 763 91 742 95 723 96 714 97 717 98 691 99 675 100 686 101 724 104 687 105 678 106 688 107 664 108 683 109 688 110 669 112 677 113 641 114 650 115 667 116 652 118 645 119 624 120 613 121 587 122 621 123 628 126 596 129 562 130 582 131 566 132 566 133 562 134 547 135 546 137 511 138 527 139 533 141 542 144 525 146 485 151 455 152 450 156 409 158 413 159 426 165 323 166 322 167 310 168 272 169 274 170 270 172 264 173 260 175 255 176 269 177 248 178 235 179 246 180 234 181 215 186 185 187 184 188 168 189 170 190 173 191 157 198 129 202 107 
5074 0.005894 0.047355 1.053013 32 90 121 0 4 1478 5 1402 6 1329 7 1328 8 1317 9 1306 10 1310 11 1269 12 1261 13 1268 14 1287 15 1202 16 1126 17 1097 18 1170 19 1240 20 1253 21 1291 22 1310 23 1338 24 1259 25 1293 26 1261 27 1264 28 1254 29 1251 30 1245 31 1232 32 1218 33 1186 34 1186 36 1087 38 1124 39 1101 40 1104 41 1106 42 1136 43 1121 44 1096 45 1082 46 983 47 894 48 877 49 752 50 774 51 927 52 1002 53 1031 54 1010 56 948 57 987 58 1004 60 1000 62 982 63 981 64 934 65 940 68 935 69 946 70 919 71 915 72 896 73 891 74 852 75 831 76 785 77 740 78 766 79 784 80 790 81 799 82 802 83 770 84 748 85 786 86 800 87 812 88 795 89 764 90 746 91 743 92 747 93 745 94 743 95 724 96 715 97 718 98 692 99 676 100 687 101 725 102 719 103 710 104 688 105 679 106 689 107 665 108 684 109 689 110 670 111 669 112 678 113 642 114 651 115 668 116 653 117 689 118 646 119 625 120 614 121 588 122 622 123 629 124 620 125 613 126 597 127 602 128 594 129 563 130 583 131 567 132 567 133 563 134 548 136 526 137 512 138 528 139 534 140 510 141 543 143 485 144 526 145 516 146 486 147 480 148 499 149 452 150 458 151 456 152 451 155 436 156 410 157 417 158 414 159 427 160 398 161 381 162 392 163 378 164 343 165 324 166 323 167 311 168 273 170 271 171 262 176 270 178 236 179 247 180 235 182 220 183 224 186 186 187 185 191 158 199 124 202 108 
5079 0.002240 0.032418 1.058806 99 158 189 0 4 1479 5 1403 6 1330 7 1329 8 1318 13 1269 21 1292 22 1311 23 1339 25 1294 26 1262 28 1255 30 1246 31 1233 33 1187 34 1187 36 1088 37 1118 38 1125 39 1102 54 1011 61 1011 66 954 67 948 72 897 74 853 80 791 81 800 87 813 96 716 111 670 112 679 113 643 115 669 116 654 117 690 118 647 119 626 122 623 123 630 124 621 125 614 126 598 127 603 129 564 130 584 144 527 158 415 163 379 178 237 182 221 204 87 
5081 0.005349 0.062766 1.052954 48 121 152 0 4 1480 5 1404 6 1331 7 1330 8 1319 9 1307 10 1311 11 1270 12 1262 13 1270 14 1288 15 1203 18 1171 20 1254 21 1293 22 1312 23 1340 24 1260 25 1295 26 1263 29 1252 30 1247 34 1188 36 1089 41 1107 42 1137 43 1122 52 1003 53 1032 55 1011 56 949 57 988 58 1005 65 941 67 949 68 936 70 920 71 916 80 792 81 801 82 803 86 801 97 719 98 693 100 688 101 726 104 689 105 680 106 690 109 690 110 671 111 671 112 680 124 622 127 604 131 568 133 564 135 547 136 527 137 513 138 529 142 512 143 486 147 481 150 459 154 438 155 437 156 411 157 418 158 416 159 428 160 399 161 382 162 393 163 380 164 344 166 324 168 274 169 275 178 238 179 248 180 236 181 216 182 222 183 225 184 214 187 186 189 171 192 151 193 146 195 135 196 137 198 130 201 105 204 88 205 78 
5082 0.010738 -0.015851 1.048163 100 166 201 0 4 1481 5 1405 6 1332 7 1331 8 1320 9 1308 10 1312 11 1271 17 1098 18 1172 19 1241 23 1341 24 1261 25 1296 26 1264 27 1265 29 1253 30 1248 31 1234 32 1219 33 1188 34 1189 35 1138 36 1090 37 1119 39 1103 40 1105 41 1108 42 1138 44 1097 60 1001 64 935 93 746 102 720 104 690 148 500 164 345 169 276 
5083 0.009289 0.042468 1.054619 138 193 220 0 4 1482 5 1406 6 1333 7 1332 8 1321 12 1263 13 1271 14 1289 19 1242 20 1255 22 1313 23 1342 24 1262 25 1297 26 1265 27 1266 28 1256 30 1249 31 1235 33 1189 42 1139 43 1123 44 1098 45 1083 46 984 47 895 48 878 51 928 52 1004 53 1033 54 1012 55 1012 56 950 57 989 58 1006 59 1020 63 982 64 936 65 942 66 955 67 950 68 937 69 947 70 921 71 917 72 898 73 892 74 854 75 832 80 793 82 804 83 771 87 814 88 796 90 747 91 744 92 748 93 747 95 725 96 717 97 720 99 677 100 689 101 727 102 721 103 711 104 691 105 681 106 691 107 666 109 691 110 672 111 672 112 681 113 644 114 652 116 655 117 691 119 627 120 615 121 589 122 624 123 631 125 615 126 599 127 605 128 595 129 565 130 585 133 565 134 549 136 528 139 535 140 511 143 487 144 528 145 517 146 487 147 482 148 501 149 453 150 460 151 457 152 452 153 440 154 439 155 438 157 419 158 417 159 429 160 400 161 383 162 394 163 381 164 346 165 325 166 325 167 312 168 275 170 272 171 263 172 265 173 261 174 276 175 256 177 249 179 249 180 237 181 217 183 226 184 215 185 206 188 169 190 174 191 159 193 147 194 147 195 136 196 138 197 125 198 131 199 125 205 79 206 83 
5084 0.011241 0.006273 1.059239 103 164 201 0 4 1483 5 1407 6 1334 7 1333 13 1272 14 1290 71 918 85 787 102 722 103 712 117 692 120 616 123 632 125 616 126 600 127 606 130 586 131 569 137 514 140 512 141 544 150 461 162 395 
5086 0.009320 0.071469 1.055358 56 107 147 0 4 1484 5 1408 8 1322 12 1264 13 1273 15 1204 16 1127 17 1099 20 1256 22 1314 23 1343 26 1266 30 1250 31 1236 33 1190 34 1190 41 1109 42 1140 48 879 49 753 50 775 57 990 59 1021 65 943 67 951 76 786 78 767 79 785 81 802 83 772 86 802 87 815 89 765 90 748 91 745 95 726 114 653 125 617 126 601 129 566 131 570 132 568 134 550 158 418 160 401 168 276 170 273 172 266 177 250 186 187 206 84 207 81 209 64 
5089 0.020376 -0.028009 1.058782 55 123 155 0 4 1485 5 1409 7 1334 8 1323 9 1309 14 1291 24 1263 25 1298 26 1267 27 1267 28 1257 30 1251 38 1126 39 1104 60 1002 80 794 87 816 116 656 123 633 133 566 
5097 0.022663 0.060878 1.051961 57 126 157 0 4 1486 5 1410 6 1335 7 1335 8 1324 22 1315 23 1344 24 1264 25 1299 28 1258 29 1254 30 1252 31 1237 45 1084 46 985 47 896 48 880 50 776 53 1034 54 1013 55 1013 56 951 57 991 58 1007 59 1022 62 983 66 956 67 952 68 938 69 948 70 922 71 919 72 899 73 893 74 855 76 787 77 741 78 768 83 773 86 803 87 817 88 797 90 749 91 746 92 749 93 748 94 744 95 727 96 718 98 694 100 690 101 728 102 723 104 692 106 692 107 667 108 685 109 692 110 673 111 673 112 682 113 645 114 654 115 670 116 657 117 693 119 628 120 617 121 590 122 625 127 607 128 596 129 567 130 587 132 569 133 567 134 551 135 548 136 529 137 515 138 530 139 536 140 513 141 545 142 513 143 488 145 518 146 488 149 454 151 458 153 441 154 440 155 439 156 412 157 420 158 419 159 430 160 402 161 384 165 326 167 313 170 274 171 264 172 267 175 257 176 271 177 251 186 188 187 187 188 170 190 175 191 160 195 137 204 89 205 80 214 72 
5101 0.028958 0.053890 1.052131 110 170 203 0 4 1487 5 1411 29 1255 32 1220 45 1085 47 897 48 881 49 754 51 929 52 1005 53 1035 62 984 69 949 72 900 73 894 74 856 75 833 76 788 78 769 94 745 95 728 96 719 104 693 112 683 115 671 124 623 125 618 137 516 138 531 146 489 151 459 152 453 154 441 157 421 159 431 160 403 161 385 163 382 165 327 173 262 175 258 176 272 178 239 179 250 189 172 190 176 192 152 
5102 0.028855 0.053554 1.052740 57 122 155 0 4 1488 5 1412 34 1191 35 1139 60 1003 61 1012 62 985 76 789 79 786 96 720 104 694 108 686 126 602 133 568 134 552 139 537 140 514 145 519 150 462 151 460 159 432 162 396 173 263 174 277 190 177 191 161 
5111 0.058606 0.028399 1.053498 42 111 145 0 3 1533 4 1489 5 1413 6 1336 7 1336 8 1325 9 1310 10 1313 11 1272 12 1265 13 1274 14 1292 15 1205 16 1128 18 1173 19 1243 20 1257 21 1294 23 1345 25 1300 26 1268 27 1268 28 1259 29 1256 30 1253 31 1238 32 1221 33 1191 34 1192 35 1140 36 1091 37 1120 38 1127 39 1105 40 1106 41 1110 42 1141 43 1124 44 1099 45 1086 47 898 48 882 49 755 51 930 52 1006 53 1036 54 1014 55 1014 56 952 57 992 58 1008 59 1023 60 1004 61 1013 62 986 63 983 64 937 65 944 66 957 68 939 69 950 70 923 71 920 72 901 112 684 113 646 114 655 115 672 116 658 117 694 118 648 119 629 120 618 121 591 122 626 123 634 124 624 125 619 126 603 127 608 128 597 129 568 130 588 131 571 132 570 133 569 134 553 135 549 136 530 137 517 138 532 139 538 140 515 141 546 142 514 143 489 144 529 145 520 146 490 147 483 148 502 149 455 150 463 151 461 152 454 153 442 154 442 155 440 156 413 157 422 158 420 159 433 160 404 161 386 162 397 163 383 164 347 165 328 166 326 167 314 168 277 169 277 170 275 171 265 172 268 173 264 174 278 175 259 176 273 177 252 178 240 179 251 181 218 182 223 183 227 184 216 185 207 187 188 188 171 189 173 190 178 191 162 192 153 193 148 194 148 195 138 196 139 197 126 198 132 199 126 200 128 201 106 202 109 203 97 204 90 205 81 206 85 207 82 208 69 209 65 210 73 211 69 213 69 214 73 216 60 217 56 218 50 219 46 220 57 221 58 222 53 223 42 224 33 225 24 226 26 227 32 228 26 229 24 230 22 231 21 232 19 233 22 234 22 235 20 236 20 237 16 238 14 239 15 240 12 
5115 0.076196 0.042597 1.051022 35 96 135 0 3 1534 4 1490 5 1414 13 1275 24 1265 25 1301 26 1269 27 1269 28 1260 73 895 74 857 77 742 81 803 86 804 100 691 104 695 124 625 126 604 127 609 129 569 130 589 132 571 133 570 134 554 135 550 136 531 138 533 143 490 148 503 149 456 153 443 154 443 157 423 159 434 160 405 161 387 162 398 163 384 165 329 166 327 167 315 168 278 169 278 173 265 179 252 180 238 181 219 182 224 183 228 184 217 185 208 186 189 187 189 188 172 189 174 191 163 192 154 193 149 194 149 195 139 196 140 199 127 200 129 
5117 -0.102511 -0.006369 1.048658 44 101 139 0 4 1491 6 1337 11 1273 13 1276 14 1293 16 1129 17 1100 22 1316 26 1270 27 1270 28 1261 30 1254 
5122 -0.073267 -0.019393 1.041041 74 145 181 0 4 1492 6 1338 8 1326 9 1311 10 1314 11 1274 12 1266 13 1277 14 1294 15 1206 16 1130 18 1174 20 1258 21 1295 23 1346 24 1266 25 1302 26 1271 28 1262 29 1257 33 1192 37 1121 38 1128 39 1106 41 1111 42 1142 43 1125 44 1100 47 899 
5124 -0.073514 0.006806 1.043551 39 91 129 0 1 1344 2 1408 4 1493 6 1339 8 1327 9 1312 10 1315 11 1275 12 1267 13 1278 14 1295 19 1244 21 1296 22 1317 23 1347 24 1267 25 1303 26 1272 27 1271 28 1263 29 1258 31 1239 33 1193 36 1092 38 1129 39 1107 40 1107 41 1112 42 1143 52 1007 
5128 -0.092650 0.014629 1.054131 79 141 177 0 4 1494 5 1415 6 1340 13 1279 18 1175 33 1194 37 1122 38 1130 43 1126 44 1101 59 1024 
5133 -0.071757 0.023328 1.047634 50 116 151 0 1 1345 2 1409 3 1535 4 1495 5 1416 6 1341 7 1337 8 1328 9 1313 10 1316 11 1276 12 1268 13 1280 14 1296 16 1131 18 1176 22 1318 23 1348 24 1268 25 1304 26 1273 27 1272 28 1264 29 1259 31 1240 32 1222 37 1123 38 1131 40 1108 44 1102 45 1087 47 900 51 931 52 1008 53 1037 56 953 57 993 58 1009 60 1005 65 945 67 953 69 951 70 924 71 921 73 896 
5135 -0.079132 -0.044615 1.061949 86 150 188 0 4 1496 6 1342 7 1338 8 1329 9 1314 10 1317 11 1277 12 1269 13 1281 14 1297 15 1207 16 1132 17 1101 18 1177 20 1259 21 1297 22 1319 23 1349 24 1269 26 1274 27 1273 28 1265 29 1260 30 1255 31 1241 32 1223 33 1195 34 1193 35 1141 36 1093 38 1132 39 1108 40 1109 41 1113 42 1144 43 1127 44 1103 45 1088 46 986 47 901 48 883 51 932 53 1038 54 1015 55 1015 56 954 63 984 65 946 66 958 67 954 68 940 69 952 71 922 
5137 -0.042990 0.011675 1.042469 40 100 135 0 4 1497 6 1343 10 1318 11 1278 12 1270 13 1282 14 1298 15 1208 19 1245 20 1260 21 1298 22 1320 29 1261 52 1009 53 1039 54 1016 57 994 58 1010 68 941 69 953 121 592 
5139 -0.061070 0.045210 1.054050 41 103 139 0 4 1498 6 1344 20 1261 21 1299 24 1270 30 1256 34 1194 36 1094 61 1014 62 987 63 985 64 938 73 897 94 746 95 729 
5140 -0.052072 0.052518 1.048562 65 133 169 0 4 1499 6 1345 10 1319 40 1110 61 1015 62 988 67 955 73 898 77 743 90 750 101 729 
5141 -0.047134 0.050373 1.045987 65 133 169 0 4 1500 6 1346 10 1320 23 1350 25 1305 40 1111 58 1011 67 956 77 744 
5145 -0.052127 0.011251 1.053636 37 92 127 0 4 1501 6 1347 8 1330 16 1133 17 1102 22 1321 27 1274 31 1242 33 1196 37 1124 59 1025 67 957 
5146 -0.032379 0.022229 1.040344 96 157 191 0 4 1502 6 1348 7 1339 10 1321 11 1279 12 1271 13 1283 70 925 
5147 -0.018966 0.002268 1.026046 34 89 124 0 4 1503 6 1349 7 1340 8 1331 9 1315 10 1322 11 1280 13 1284 16 1134 17 1103 18 1178 19 1246 20 1262 22 1322 26 1275 27 1275 28 1266 29 1262 33 1197 43 1128 51 933 52 1010 
5148 -0.040147 0.012529 1.047999 43 108 141 0 4 1504 6 1350 7 1341 9 1316 10 1323 15 1209 16 1135 21 1300 22 1323 24 1271 25 1306 30 1257 31 1243 34 1195 39 1109 40 1112 41 1114 60 1006 80 795 
5149 -0.049485 0.049595 1.053031 93 158 189 0 4 1505 6 1351 7 1342 8 1332 10 1324 12 1272 28 1267 30 1258 31 1244 32 1224 34 1196 35 1142 36 1095 44 1104 57 995 58 1012 60 1007 63 986 65 947 92 750 101 730 104 696 110 674 
5151 -0.039507 0.023339 1.048166 103 168 201 0 4 1506 6 1352 7 1343 21 1301 24 1272 45 1089 46 987 53 1040 72 902 73 899 74 858 
5154 -0.036771 -0.005118 1.045130 110 178 210 0 1 1346 3 1536 4 1507 6 1353 7 1344 18 1179 23 1351 44 1105 45 1090 46 988 48 884 
5155 -0.045314 0.027501 1.054535 46 107 137 0 2 1410 4 1508 6 1354 7 1345 8 1333 9 1317 10 1325 11 1281 14 1299 15 1210 16 1136 17 1104 18 1180 19 1247 20 1263 21 1302 22 1324 23 1352 24 1273 25 1307 26 1276 27 1276 28 1268 29 1263 30 1259 31 1245 32 1225 33 1198 35 1143 36 1096 37 1125 38 1133 39 1110 40 1113 41 1115 42 1145 43 1129 45 1091 46 989 48 885 49 756 50 777 51 934 52 1011 53 1041 54 1017 55 1016 56 955 57 996 58 1013 59 1026 60 1008 61 1016 62 989 63 987 65 948 66 959 67 958 68 942 69 954 71 923 72 903 73 900 74 859 77 745 79 787 81 804 83 774 84 749 85 788 86 805 87 818 88 798 89 766 90 751 91 747 92 751 93 749 97 721 98 695 99 678 100 692 102 724 103 713 104 697 106 693 107 668 108 687 109 693 110 675 113 647 114 656 115 673 116 659 
5156 -0.039555 -0.000220 1.052956 102 170 202 0 4 1509 6 1355 7 1346 9 1318 23 1353 25 1308 28 1269 29 1264 35 1144 40 1114 60 1009 61 1017 68 943 70 926 79 788 82 805 
5165 -0.026563 0.024593 1.047705 60 116 148 0 4 1510 6 1356 22 1325 23 1354 24 1274 39 1111 55 1017 61 1018 63 988 65 949 75 834 86 806 110 676 123 635 126 605 
5167 -0.027105 0.026142 1.052209 36 88 119 0 1 1347 2 1411 4 1511 6 1357 9 1319 10 1326 11 1282 12 1273 13 1285 14 1300 15 1211 16 1137 17 1105 18 1181 19 1248 20 1264 21 1303 23 1355 26 1277 27 1277 28 1270 33 1199 34 1197 36 1097 37 1126 38 1134 39 1112 41 1116 42 1146 45 1092 56 956 57 997 58 1014 80 796 81 805 82 806 83 775 84 750 85 789 86 807 101 731 102 725 103 714 106 694 110 677 112 685 113 648 114 657 116 660 118 649 123 636 134 555 137 518 
5168 -0.025326 0.018005 1.048118 39 97 126 0 4 1512 5 1417 6 1358 7 1347 8 1334 9 1320 10 1327 12 1274 13 1286 14 1301 15 1212 18 1182 19 1249 20 1265 21 1304 23 1356 24 1275 25 1309 26 1278 27 1278 28 1271 29 1265 37 1127 40 1115 42 1147 43 1130 62 990 65 950 69 955 71 924 97 722 100 693 116 661 
5171 -0.037278 0.025448 1.058369 63 124 154 0 2 1412 4 1513 6 1359 7 1348 12 1275 15 1213 17 1106 18 1183 31 1246 32 1226 34 1198 42 1148 43 1131 44 1106 52 1012 63 989 68 944 70 927 72 904 74 860 100 694 114 658 116 662 119 630 121 593 122 627 130 590 131 572 
5172 -0.017161 0.031441 1.040508 88 142 179 0 1 1348 4 1514 5 1418 6 1360 7 1349 8 1335 9 1321 10 1328 11 1283 12 1276 13 1287 20 1266 21 1305 22 1326 23 1357 25 1310 26 1279 27 1279 28 1272 30 1260 36 1098 38 1135 41 1117 
5173 -0.022666 0.044038 1.045630 84 144 179 0 4 1515 6 1361 8 1336 18 1184 19 1250 21 1306 22 1327 23 1358 24 1276 57 998 61 1019 88 799 
5175 -0.022767 0.045745 1.046928 20 82 118 0 4 1516 6 1362 17 1107 18 1185 19 1251 20 1267 21 1307 22 1328 23 1359 27 1280 30 1261 34 1199 41 1118 67 959 87 819 
5176 -0.026260 0.037190 1.052490 110 165 197 0 1 1349 4 1517 6 1363 7 1350 8 1337 9 1322 10 1329 11 1284 12 1277 13 1288 14 1302 15 1214 16 1138 17 1108 18 1186 19 1252 20 1268 21 1308 23 1360 24 1277 25 1311 26 1280 27 1281 28 1273 29 1266 30 1262 31 1247 32 1227 33 1200 34 1200 35 1145 37 1128 39 1113 41 1119 42 1149 43 1132 45 1093 52 1013 53 1042 54 1018 55 1018 56 957 57 999 58 1015 59 1027 60 1010 62 991 64 939 65 951 66 960 67 960 69 956 70 928 71 925 73 901 74 861 75 835 77 746 78 770 79 789 80 797 81 806 83 776 84 751 85 790 86 808 87 820 88 800 89 767 90 752 91 748 92 752 93 750 94 747 96 721 97 723 98 696 99 679 101 732 102 726 103 715 104 698 106 695 108 688 109 694 110 678 111 674 112 686 113 649 114 659 115 674 116 663 117 695 118 650 119 631 121 594 123 637 124 626 125 620 127 610 128 598 129 570 130 591 131 573 132 572 133 571 134 556 135 551 137 519 138 534 139 539 140 516 142 515 143 491 
5177 -0.040124 0.044215 1.064099 53 107 139 0 4 1518 6 1364 8 1338 14 1303 15 1215 16 1139 21 1309 24 1278 25 1312 28 1274 37 1129 51 935 53 1043 56 958 58 1016 65 952 68 945 
5179 -0.024525 0.035191 1.053892 30 85 120 0 1 1350 3 1537 4 1519 5 1419 6 1365 7 1351 8 1339 9 1323 10 1330 12 1278 13 1289 14 1304 15 1216 16 1140 17 1109 18 1187 19 1253 20 1269 21 1310 22 1329 23 1361 24 1279 25 1313 26 1281 27 1282 28 1275 29 1267 30 1263 31 1248 32 1228 33 1201 36 1099 37 1130 38 1136 39 1114 40 1116 41 1120 42 1150 43 1133 45 1094 51 936 53 1044 54 1019 55 1019 56 959 57 1000 58 1017 59 1028 61 1020 62 992 63 990 65 953 66 961 67 961 68 946 69 957 70 929 71 926 73 902 74 862 76 790 77 747 78 771 79 790 81 807 82 807 85 791 86 809 87 821 88 801 89 768 90 753 94 748 95 730 97 724 98 697 100 695 101 733 103 716 109 695 111 675 112 687 116 664 119 632 120 619 121 595 123 638 127 611 140 517 
5180 -0.019567 0.033775 1.049400 97 159 184 0 4 1520 6 1366 14 1305 18 1188 19 1254 20 1270 23 1362 29 1268 60 1011 61 1021 69 958 71 927 
5182 -0.024481 0.042425 1.055131 98 155 185 0 2 1413 4 1521 6 1367 8 1340 13 1290 14 1306 19 1255 20 1271 22 1330 23 1363 24 1280 25 1314 26 1282 28 1276 29 1269 33 1202 35 1146 37 1131 39 1115 40 1117 41 1121 42 1151 60 1012 79 791 83 777 84 752 92 753 94 749 100 696 101 734 104 699 106 696 107 669 108 689 109 696 110 679 111 676 119 633 122 628 123 639 129 571 130 592 132 573 133 572 134 557 136 532 144 530 147 484 
5183 -0.021230 0.029618 1.053849 58 118 142 0 1 1351 2 1414 3 1538 4 1522 5 1420 6 1368 7 1352 8 1341 9 1324 10 1331 11 1285 12 1279 13 1291 14 1307 15 1217 19 1256 21 1311 22 1331 23 1364 24 1281 25 1315 27 1283 28 1277 29 1270 30 1264 31 1249 32 1229 33 1203 34 1201 35 1147 36 1100 38 1137 39 1116 41 1122 42 1152 52 1014 53 1045 54 1020 55 1020 56 960 57 1001 58 1018 59 1029 60 1013 61 1022 62 993 63 991 64 940 65 954 66 962 67 962 70 930 72 905 73 903 74 863 76 791 79 792 81 808 82 808 83 778 84 753 85 792 86 810 87 822 88 802 89 769 91 749 93 751 94 750 96 722 97 725 98 698 99 680 100 697 101 735 102 727 103 717 105 682 108 690 109 697 110 680 111 677 112 688 113 650 114 660 115 675 116 665 119 634 120 620 121 596 122 629 123 640 124 627 126 606 128 599 129 572 130 593 131 574 132 574 133 573 135 552 136 533 137 520 138 535 140 518 141 547 142 516 143 492 145 521 146 491 147 485 148 504 149 457 150 464 152 455 
5185 -0.063354 0.046545 1.097713 55 114 143 0 4 1523 6 1369 7 1353 9 1325 24 1282 25 1316 26 1283 55 1021 57 1002 58 1019 64 941 
5188 -0.020309 0.026914 1.054633 39 100 128 0 4 1524 6 1370 7 1354 20 1272 21 1312 25 1317 29 1271 56 961 87 823 88 803 127 612 136 534 150 465 
5189 -0.021448 0.039098 1.055217 96 150 180 0 1 1352 2 1415 4 1525 6 1371 7 1355 8 1342 9 1326 10 1332 11 1286 12 1280 13 1292 14 1308 15 1218 16 1141 17 1110 18 1189 19 1257 20 1273 22 1332 23 1365 24 1283 25 1318 26 1284 27 1284 28 1278 29 1272 30 1265 32 1230 35 1148 37 1132 38 1138 39 1117 40 1118 41 1123 42 1153 43 1134 44 1107 45 1095 46 990 47 902 49 757 50 778 51 937 52 1015 53 1046 54 1021 55 1022 56 962 57 1003 58 1020 59 1030 60 1014 61 1023 66 963 68 947 70 931 71 928 72 906 73 904 74 864 75 836 76 792 77 748 78 772 79 793 80 798 81 809 82 809 83 779 84 754 85 793 86 811 87 824 88 804 89 770 93 752 94 751 95 731 96 723 97 726 98 699 99 681 100 698 101 736 102 728 103 718 107 670 108 691 109 698 110 681 111 678 113 651 114 661 115 676 116 666 117 696 118 651 119 635 120 621 121 597 123 641 124 628 125 621 126 607 127 613 128 600 129 573 130 594 131 575 132 575 133 574 134 558 135 553 136 535 137 521 139 540 141 548 144 531 146 492 148 505 149 458 150 466 152 456 155 441 156 414 157 424 159 435 
5198 -0.015134 0.039855 1.053930 25 83 114 0 4 1526 6 1372 14 1309 19 1258 40 1119 45 1096 46 991 52 1016 55 1023 58 1021 59 1031 60 1015 61 1024 69 959 73 905 74 865 75 837 77 749 92 754 95 732 96 724 97 727 98 700 99 682 101 737 108 692 111 679 118 652 119 636 128 601 129 574 132 576 133 575 135 554 137 522 145 522 149 459 154 444 161 388 167 316 
5199 -0.019240 0.040121 1.056284 25 83 114 0 4 1527 6 1373 13 1293 14 1310 19 1259 34 1202 40 1120 45 1097 46 992 49 758 50 779 55 1024 56 963 57 1004 59 1032 60 1016 61 1025 69 960 73 906 74 866 75 838 77 750 92 755 93 753 95 733 96 725 97 728 98 701 99 683 101 738 103 719 106 697 111 680 113 652 118 653 119 637 129 575 132 577 133 576 135 555 138 536 142 517 145 523 149 460 154 445 
5200 -0.017865 0.022698 1.057175 55 109 138 0 4 1528 6 1374 7 1356 8 1343 9 1327 10 1333 20 1274 21 1313 22 1333 23 1366 24 1284 26 1285 27 1285 29 1273 30 1266 31 1250 32 1231 37 1133 43 1135 44 1108 45 1098 46 993 54 1022 55 1025 56 964 67 963 71 929 72 907 73 907 81 810 94 752 95 734 96 726 99 684 102 729 103 720 107 671 108 693 114 662 116 667 117 697 120 622 122 630 123 642 124 629 128 602 133 577 134 559 142 518 146 493 156 415 
5204 -0.006981 0.016946 1.048614 60 114 144 0 4 1529 5 1421 6 1375 7 1357 8 1344 19 1260 20 1275 21 1314 24 1285 25 1319 26 1286 37 1134 40 1121 57 1005 60 1017 61 1026 65 955 71 930 72 908 73 908 109 699 112 689 
5209 -0.008408 0.030311 1.054429 33 87 117 0 1 1353 4 1530 6 1376 8 1345 10 1334 11 1287 14 1311 19 1261 22 1334 25 1320 26 1287 28 1279 29 1274 31 1251 32 1232 33 1204 34 1203 35 1149 36 1101 38 1139 39 1118 40 1122 42 1154 43 1136 44 1109 45 1099 46 994 48 886 49 759 50 780 51 938 52 1017 53 1047 55 1026 56 965 57 1006 58 1022 59 1033 61 1027 62 994 63 992 66 964 69 961 70 932 71 931 72 909 73 909 82 810 83 780 85 794 87 825 102 730 104 700 141 549 142 519 
5211 -0.022100 0.042433 1.053110 44 100 130 0 1 1354 3 1539 4 1531 5 1422 6 1377 7 1358 8 1346 9 1328 10 1335 11 1288 12 1281 14 1312 17 1111 18 1190 19 1262 20 1276 21 1315 22 1335 23 1367 24 1286 25 1321 26 1288 27 1286 29 1275 30 1267 31 1252 32 1233 33 1205 34 1204 35 1150 36 1102 37 1135 39 1119 40 1123 41 1124 42 1155 45 1100 47 903 48 887 50 781 51 939 53 1048 58 1023 60 1018 61 1028 63 993 64 942 65 956 66 965 67 964 68 948 70 933 75 839 77 751 80 799 82 811 83 781 86 812 88 805 89 771 95 735 96 727 97 729 98 702 104 701 105 683 117 698 131 576 159 436 
5213 -0.007074 0.045150 1.054069 43 99 129 0 1 1355 2 1416 3 1540 4 1532 6 1378 7 1359 8 1347 9 1329 10 1336 11 1289 12 1282 13 1294 14 1313 16 1142 18 1191 19 1263 20 1277 21 1316 22 1336 24 1287 25 1322 27 1287 29 1276 33 1206 34 1205 35 1151 37 1136 38 1140 39 1120 40 1124 41 1125 42 1156 45 1101 52 1018 57 1007 59 1034 63 994 64 943 65 957 68 949 69 962 70 934 78 773 79 794 80 800 81 811 82 812 83 782 86 813 88 806 89 772 90 754 93 754 97 730 98 703 99 685 100 699 102 731 103 721 104 702 105 684 106 698 107 672 108 694 109 700 113 653 115 677 117 699 118 654 124 630 125 622 126 608 128 603 129 576 132 578 136 536 137 523 141 550 143 493 147 486 148 506 149 461 150 467 151 462 153 444 154 446 155 442 156 416 157 425 158 421 159 437 161 389 162 399 163 385 164 348 166 328 167 317 171 266 180 239 181 220 182 225 183 229 
5218 -0.004723 0.039082 1.054458 95 145 178 0 4 1533 5 1423 6 1379 7 1360 8 1348 9 1330 11 1290 12 1283 14 1314 15 1219 18 1192 19 1264 20 1278 21 1317 22 1337 23 1368 24 1288 25 1323 26 1289 27 1288 28 1280 29 1277 30 1268 38 1141 53 1049 55 1027 56 966 58 1024 59 1035 60 1019 61 1029 62 995 63 995 64 944 65 958 66 966 67 965 68 950 70 935 71 932 72 910 73 910 75 840 85 795 86 814 92 756 102 732 109 701 110 682 124 631 125 623 126 609 127 614 133 578 135 556 136 537 139 541 140 519 141 551 142 520 144 532 146 494 159 438 
5220 -0.003955 0.034793 1.054220 29 89 122 0 2 1417 3 1541 4 1534 6 1380 7 1361 8 1349 9 1331 10 1337 11 1291 12 1284 13 1295 14 1315 16 1143 17 1112 18 1193 19 1265 20 1279 21 1318 23 1369 24 1289 25 1324 26 1290 27 1289 28 1281 29 1278 30 1269 32 1234 33 1207 34 1206 35 1152 36 1103 37 1137 38 1142 39 1121 40 1125 41 1126 44 1110 46 995 51 940 57 1008 58 1025 59 1036 62 996 64 945 65 959 66 967 67 966 68 951 69 963 70 936 80 801 81 812 82 813 84 755 85 796 86 815 87 826 88 807 94 753 101 739 105 685 106 699 115 678 117 700 118 655 119 638 120 623 121 598 126 610 127 615 128 604 131 577 145 524 
5222 -0.003319 0.036330 1.054618 91 145 177 0 1 1356 3 1542 4 1535 6 1381 7 1362 8 1350 9 1332 10 1338 11 1292 12 1285 13 1296 21 1319 22 1338 23 1370 24 1290 25 1325 26 1291 27 1290 28 1282 30 1270 36 1104 37 1138 38 1143 40 1126 41 1127 42 1157 44 1111 54 1023 55 1028 56 967 57 1009 58 1026 60 1020 61 1030 63 996 65 960 68 952 84 756 85 797 86 816 107 673 111 681 123 643 126 611 130 595 135 557 136 538 140 520 141 552 145 525 148 507 155 443 178 241 
5228 0.003693 0.049344 1.052272 49 106 140 0 4 1536 6 1382 7 1363 10 1339 19 1266 22 1339 23 1371 24 1291 27 1291 30 1271 36 1105 37 1139 53 1050 61 1031 64 946 96 728 112 690 129 577 
5230 0.006886 -0.026139 1.059096 51 120 154 0 4 1537 6 1383 8 1351 11 1293 12 1286 13 1297 14 1316 15 1220 20 1280 22 1340 23 1372 24 1292 25 1326 27 1292 28 1283 29 1279 30 1272 31 1253 32 1235 34 1207 35 1153 62 997 63 997 65 961 67 967 70 937 105 686 111 682 112 691 119 639 121 599 133 579 136 539 141 553 142 521 146 495 147 487 164 349 
